0.016412679550146247 0.24648343885464885 0.04955073073506355
0.015747789737676765 0.24736048394961574 0.04959622770547867
0.015081648227667 0.24823913836999156 0.04964185133576393
0.014191691276525642 0.24914334828181484 0.049701135605573654
0.01352316558072486 0.25002546722216823 0.049747027456760406
0.012853507396673347 0.25090920293851116 0.04979304224252701
0.012182537910436775 0.2517945777825854 0.049839191138744354
0.011510733959173347 0.252681554501488 0.049885451793670654
0.010613028404211189 0.25359545016808727 0.04994550347328186
0.009938542243932869 0.254485973363354 0.049992043524980545
0.009262983200048591 0.25537813568635204 0.05003870651125908
0.00858617245862403 0.2562719669394038 0.05008550360798836
0.007908408042883064 0.2571674373201869 0.05013241991400719
0.006943706867193367 0.2580981340460322 0.050196852535009384
0.006035987731908943 0.25902418906016567 0.05025787651538849
0.005353991386388923 0.2599252771787188 0.05030523240566254
0.004670922157262947 0.2608280342273257 0.050352707505226135
0.003986601230596687 0.26173249745888927 0.05040032044053078
0.002442244884466316 0.2627438020162127 0.05050034821033478
0.00021410405347266348 0.2638427701048396 0.05064208060503006
-0.0014648395805605396 0.26487802827878215 0.050750453025102615
-0.02512424767305932 0.09521819764895656 0.017296291887760162
-0.01679306805422387 0.09669476116223552 0.017126891762018204
-0.008622284534478997 0.09814277405066707 0.01696076989173889
-0.0006073075561769947 0.09956304842753627 0.016797831282019615
0.007256273624395515 0.100956381504967 0.01663798838853836
0.014972571727728035 0.10232351461572864 0.016481153666973114
0.01767123162457862 0.1033188153259299 0.016425566747784615
0.01876056611249366 0.10419591630025127 0.016402460634708405
0.019575659629797126 0.10505182409806468 0.016384905204176903
0.020388905403112556 0.10590589160247066 0.016367405652999878
0.021200780269598152 0.10675815979166248 0.016349950805306435
0.022010747787450935 0.10760860631389835 0.016332553699612617
0.022819344398473884 0.10845726469679096 0.016315201297402382
0.02389502942273536 0.10932137558384158 0.016292480751872063
0.024699751731847908 0.1101661522142432 0.01627524197101593
0.02550298392484107 0.11100914815588214 0.016258051618933678
0.0263046067924253 0.11185037830991962 0.016240911558270454
0.027104501125311042 0.11268983522577503 0.01622382365167141
0.02790302455136695 0.11352754125519016 0.016206780448555946
0.028699759838079597 0.11436348894758441 0.01618979126214981
0.02975982844540992 0.11521287003679492 0.01616751030087471
0.030553047058080818 0.11604505146069743 0.01615062728524208
0.031344596740698005 0.11687549689932086 0.01613379456102848
0.03213465630719581 0.1177042212538264 0.01611701026558876
0.032923225757574226 0.11853123570008495 0.01610027253627777
0.03371012627789893 0.1193565290622256 0.01608358509838581
0.03475690304944434 0.12019356081409671 0.016061678528785706
0.03554040610501685 0.12101518476529338 0.016045095399022102
0.036322180625890876 0.12183510253353336 0.01602856256067753
0.03710240542600074 0.12265334392113902 0.016012078151106834
0.037881199714635994 0.12346990520282008 0.01599564030766487
0.03865838467786231 0.12428479755444743 0.015979250892996788
0.039434079524969246 0.12509802470131137 0.015962906181812286
0.04046607434461036 0.12592107916398265 0.015941420570015907
0.041238252517675544 0.12673072258157947 0.015925182029604912
0.04200900017926612 0.12753872687144496 0.015908990055322647
0.04277813851544776 0.12834508830828883 0.015892844647169113
0.04354584634015479 0.12914981806798198 0.01587674766778946
0.044312004444097663 0.129952923601105 0.015860695391893387
0.045076732036565925 0.13075441049559333 0.015844689682126045
0.04609412371823707 0.13156386206073978 0.015823613852262497
0.04685539424130836 0.1323618639461539 0.015807710587978363
0.047615115043615486 0.1331582602314494 0.01579185575246811
0.04837346493909278 0.13395306768043258 0.015776043757796288
0.04913044392774024 0.13474629001839378 0.015760276466608047
0.04988575398633399 0.13553792538268783 0.015744559466838837
0.05063975274274268 0.13632798867447593 0.01572888344526291
0.05164272010037818 0.1371242061458371 0.015708211809396744
0.0523932617873899 0.13791087383551814 0.015692638233304024
0.05314237296292701 0.13869598807914474 0.015677107498049736
0.053890232440923835 0.13947955446465232 0.01566162146627903
0.05463642298886695 0.1402615729920409 0.015646180137991905
0.05538136183926978 0.1410420566998265 0.015630783513188362
0.05597973286816993 0.1418173827431939 0.015618352219462395
0.05642199933240333 0.14258775973839977 0.0156090771779418
0.0567534011573545 0.14335468525214412 0.015602048486471176
0.05708468377301612 0.1441209234498284 0.01559503749012947
0.05719405829617896 0.1448818121306441 0.015592508018016815
0.05728060424039283 0.14564199859423854 0.015590452589094639
0.0573671501846067 0.14640198389215686 0.015588412992656231
0.05745375573346534 0.1471617736123345 0.015586387366056442
0.05756897151181617 0.14792185669912317 0.015583799220621586
0.057655517456030037 0.14868122639281967 0.01558180432766676
0.05774188458630958 0.1494404005087755 0.01557982712984085
0.05782837092587867 0.15019938370360353 0.015577862970530987
0.05791485726544776 0.15095817597730377 0.015575914643704891
0.0580012243957273 0.15171677919252136 0.015573983080685139
0.05808759152600684 0.15247519428057887 0.01557206641882658
0.0582027476997129 0.15323372019602277 0.015569585375487804
0.05828911482999244 0.15399173807500222 0.015567698515951633
0.05837536275098243 0.1547495715521119 0.01556582935154438
0.058461670276617195 0.15550722435264208 0.015563973225653172
0.058548037406896736 0.15626469787357666 0.015562131069600582
0.058634285327886726 0.15702199258057692 0.01556030660867691
0.05872047364423194 0.15777911010345735 0.015558497048914433
0.058835510608648445 0.15853615125788667 0.015556123107671738
0.05892181813428321 0.1592928917115397 0.015554342418909073
0.0590080660552732 0.16004945975410112 0.015552577562630177
0.05909419476697364 0.16080585675345094 0.015550829470157623
0.059180383083318855 0.161562084455819 0.015549096278846264
0.05926657139966407 0.16231814419998147 0.015547376126050949
0.05935270011136451 0.16307403749933758 0.015545672737061977
0.05943876921842017 0.16382976618742862 0.015543986111879349
0.05955362736890235 0.16458520476853766 0.015541734173893929
0.05963975608060279 0.165340579786881 0.015540075488388538
0.05972576558301368 0.16609579485057213 0.015538434498012066
0.05981189429471412 0.16685085019244172 0.015536806546151638
0.05989790379712501 0.1676057486064575 0.015535194426774979
0.05998397290418067 0.16836049055828073 0.015533596277236938
0.060069922801946785 0.16911507884187915 0.015532015822827816
0.060184602138494636 0.16986919121964195 0.015529871918261051
0.06027055203626075 0.17062344702108123 0.015528321266174316
0.06035668074796119 0.17137755008561828 0.015526781789958477
0.06044251143643775 0.17213150879515626 0.015525261871516705
0.06052840172955909 0.17288531942440488 0.0155237577855587
0.06061429202268043 0.1736389838360093 0.015522265806794167
0.06070024192044654 0.17439250389261463 0.015520789660513401
0.06081468283841529 0.17514536364151456 0.015518753789365292
0.06090051352689185 0.17589857356770255 0.015517309308052063
0.060986344215368415 0.17665164286418178 0.015515878796577454
0.06107223450848975 0.1774045724622748 0.015514463186264038
0.061158065196966316 0.1781573679499171 0.015513062477111816
0.06124371707150855 0.17891002932710864 0.015511680394411087
0.06132948815534034 0.17966255659384944 0.015510310418903828
0.06144380986401954 0.18041423635704734 0.015508380718529224
0.061529700157140876 0.18116646932585456 0.015507038682699203
0.06161529242703834 0.18191857749743678 0.01550571620464325
0.061701063510870124 0.1826705534212134 0.015504405833780766
0.06178659617612281 0.1834224101357005 0.015503114089369774
0.06187230765530982 0.18417413832767227 0.015501835383474827
0.06195801913449683 0.1849257398597739 0.015500569716095924
0.062072162029241706 0.18567631693704345 0.015498748049139977
0.06215775429913917 0.18642765211088874 0.015497514046728611
0.062243406173681404 0.18717886621279933 0.015496294014155865
0.062328879234289314 0.18792996855600097 0.01549509260803461
0.062414590713476326 0.1886809461019776 0.015493902377784252
0.06250012337872901 0.18943181375189044 0.015492728911340237
0.06258559643933692 0.19018257150573947 0.01549157127737999
0.06269962012479224 0.19093211295230605 0.015489854849874973
0.06278509318540015 0.19168262297435024 0.015488727949559689
0.06287056624600806 0.19243302123768546 0.015487615019083023
0.06295603930661597 0.19318331146760204 0.015486516989767551
0.06304145276257911 0.1939334955267451 0.015485433861613274
0.06312686621854224 0.1946835790030501 0.015484366565942764
0.06321233927915015 0.19543355817122676 0.015483313240110874
0.0633260649413816 0.1961821440808318 0.015481704846024513
0.06341141879269996 0.19693189600630023 0.015480682253837585
0.06349689185330787 0.19768154362364032 0.015479672700166702
0.06358218609998145 0.19843110555930354 0.015478682704269886
0.06366753995129981 0.1991805631868384 0.015477703884243965
0.06375289380261817 0.19992993140740611 0.015476740896701813
0.0638380688400022 0.20067921022100665 0.015475796535611153
0.06395185410687843 0.20142690206094005 0.015474289655685425
0.06403708874890723 0.20217597225828388 0.015473373234272003
0.06412220418164649 0.20292496049924114 0.015472473576664925
0.0642074388236753 0.20367385188265064 0.01547158695757389
0.06429273307034888 0.20442265385909297 0.015470712445676327
0.06437796771237769 0.20517138132972934 0.01546985562890768
0.06415069520184913 0.20593823606295802 0.015475310385227203
0.06391519725034156 0.2067061115257285 0.01548094768077135
0.06367958008954444 0.20747454205675342 0.015486601740121841
0.06344384371945777 0.20824353510661342 0.015492274425923824
0.063207868930792 0.2090130906753085 0.0154979657381773
0.06297177493283668 0.20978321621341922 0.015503676608204842
0.0627355617255918 0.21055390427036502 0.015509405173361301
0.06242031275937476 0.21133029947204807 0.015516743063926697
0.06218386113355079 0.21210220197363117 0.015522507950663567
0.06194711148450294 0.21287468562050083 0.015528294257819653
0.06171030223081031 0.21364773178620555 0.015534096397459507
0.06147337376782813 0.21442135909719684 0.015539917163550854
0.06123626649091163 0.2151955675534747 0.015545757487416267
0.060919765827154304 0.21597598979397037 0.015553215518593788
0.06068236052701392 0.2167514424972079 0.015559094026684761
0.060444776412939216 0.217527476345732 0.015564991161227226
0.06020707308957496 0.21830409879012325 0.015570906922221184
0.0599691313476316 0.21908130983038165 0.015576842240989208
0.059731130001043464 0.21985911319179752 0.01558279525488615
0.05949283063123145 0.22063751632495143 0.015588769689202309
0.059175078269933845 0.22142269948644855 0.015596363693475723
0.05893660008618751 0.22220236921830394 0.015602374449372292
0.05869782387921729 0.22298264244718768 0.015608405694365501
0.05845910727689185 0.22376351172251918 0.01561445277184248
0.05822015225598731 0.22454498076958873 0.0156205203384161
0.057981137630437996 0.22532705331368663 0.015626605600118637
0.05766207396695533 0.22611642742676952 0.0156343225389719
0.05742258250424781 0.22689980382247188 0.015640446916222572
0.057183031436895515 0.2276837911657832 0.015646591782569885
0.05694336116025367 0.22846838200612285 0.01565275341272354
0.05670333325574317 0.22925361359639385 0.015658939257264137
0.05633587062070289 0.23005076611561992 0.015667714178562164
0.05601543605039039 0.2308445435218356 0.015675555914640427
0.05577505051801124 0.23163183147235133 0.01568179577589035
0.055534545776342537 0.23241973782105663 0.015688056126236916
0.05529374301144996 0.23320828491969325 0.015694336965680122
0.05505282103726783 0.23399745041651943 0.01570063643157482
0.0548118990630857 0.23478724176211574 0.015706952661275864
0.05449015319058814 0.2355853777579806 0.015714919194579124
0.054248813983892585 0.23637653255982616 0.0157212782651186
0.05400741517255225 0.23716830575986125 0.015727652236819267
0.053765718337988044 0.23796072716040828 0.015734050422906876
0.05352396189877906 0.23875378931088664 0.015740463510155678
0.053281967040990974 0.23954749966187694 0.01574690081179142
0.05295902907559791 0.24035006130261638 0.01575498841702938
0.052716736194585945 0.2411451500110171 0.015761464834213257
0.052474264499639656 0.24194087946934917 0.015767958015203476
0.05223173320004859 0.24273725712819316 0.015774471685290337
0.051988963481878425 0.24353429788871028 0.01578100398182869
0.051746134159063484 0.24433198684973934 0.015787556767463684
0.05142188489148536 0.2451390709929011 0.015795771032571793
0.05117875754544654 0.2459381532125018 0.01580236293375492
0.050935332176183845 0.24673791343493678 0.01580897532403469
0.050691847202276374 0.2475383367590449 0.015815606340765953
0.05044806420514503 0.24833943808598735 0.015822259709239006
0.05012292086789527 0.24915034437699535 0.015830576419830322
0.04987889945218482 0.2499528538636706 0.01583726890385151
0.04963475882718482 0.2507560339025996 0.015843980014324188
0.04939037978360572 0.2515599068455241 0.01585071161389351
0.04914594113538184 0.2523644354395411 0.015857461839914322
0.04890132367322364 0.25316964948697307 0.015864232555031776
0.048574749824499275 0.25398524219317653 0.01587267965078354
0.048329834339117195 0.2547919091038249 0.015879489481449127
0.048084799644445564 0.25559925401730754 0.015886319801211357
0.04783940732190528 0.2564073141865275 0.015893172472715378
0.047594014999365 0.2572160449080012 0.01590004377067089
0.0472663086623899 0.25803560877366283 0.01590859889984131
0.0468659442634336 0.25886505210919597 0.01591864600777626
0.046249870655035163 0.25972253943009593 0.01593308337032795
0.045632783767675544 0.26058155412001827 0.015947561711072922
0.045014683601354744 0.26144213343186595 0.015962079167366028
0.044188861247991706 0.26233080888314464 0.015980828553438187
0.04356849610516944 0.26319472605509975 0.01599542796611786
0.04294705807874122 0.2640602227501414 0.016010070219635963
0.042324725982641365 0.2649272766165278 0.016024749726057053
0.04133660018155494 0.26584418976826885 0.01604687236249447
0.039819840785955574 0.26683378333373287 0.016079746186733246
0.03778809725949683 0.2678957816414378 0.016123097389936447
0.03625774800488868 0.2688941817931674 0.01615629717707634
0.03472125947186866 0.26989667976422527 0.01618964597582817
0.03317892968366065 0.2709032457522891 0.016223136335611343
0.031630639430975105 0.2719139244608424 0.016256771981716156
0.029556755420660163 0.2730011504344485 0.01630111038684845
0.027994279262518074 0.27402096355481365 0.01633508689701557
0.02642590224454322 0.27504494900031307 0.016369206830859184
0.024851207134222175 0.27607317382617214 0.016403481364250183
0.023270372745489265 0.27710566038413265 0.01643790490925312
0.021152858135198738 0.2782189857415698 0.016483264043927193
0.019557539817785408 0.2792608823828242 0.016518035903573036
0.01795596301267066 0.28030711526198604 0.016552960500121117
0.0163481277198545 0.2813576992802165 0.016588035970926285
0.014194075462316658 0.28249275053067424 0.016634250059723854
0.012571160194372322 0.2835530352048419 0.016669686883687973
0.01094198643872657 0.2846177604250453 0.016705278307199478
0.00930619656751075 0.285686970894768 0.016741029918193817
0.007663790580724861 0.2867607113174937 0.01677694357931614
0.005463783142065193 0.2879234936289332 0.016824234277009964
0.0038059991569272533 0.28900724018140056 0.016860516741871834
0.002141658660864021 0.2900955762915156 0.016896959394216537
0.013390068408941413 0.08608176672978618 -0.0165395587682724
0.015065197345708992 0.08704146111531474 -0.01650424115359783
0.0167334717483274 0.08799708003325679 -0.016469081863760948
0.01894742667386451 0.08899772280974605 -0.016422925516963005
0.020535830852483894 0.08993893975539424 -0.016389423981308937
0.022181932327245857 0.09088189268632152 -0.01635478064417839
0.0238212984771482 0.09182088190837123 -0.01632029376924038
0.025454048511480476 0.09275594467444637 -0.016285961493849754
0.02708036124417701 0.0936871182374499 -0.016251781955361366
0.029238526222204353 0.09465903157515743 -0.016206886619329453
0.030125979778265144 0.09552251661343791 -0.01618766412138939
0.03080350577542701 0.09636714423222759 -0.016172699630260468
0.03147983967969337 0.0972102146796725 -0.01615777425467968
0.03215516030499854 0.09805175030751445 -0.016142889857292175
0.032829229232763435 0.09889173248930194 -0.016128046438097954
0.03372633874127784 0.09974743539614894 -0.016108721494674683
0.03439784466931739 0.1005841132454417 -0.016093967482447624
0.03506821810910621 0.10141926745100238 -0.0160792525857687
0.03573751866528907 0.10225290918870189 -0.016064578667283058
0.03640556752393165 0.10308502728266933 -0.0160499457269907
0.03707254349896827 0.10391564780993678 -0.016035351902246475
0.03773838698575416 0.10474475586934306 -0.016020799055695534
0.03862464844891944 0.10558789709730365 -0.01600181870162487
0.03928786933133521 0.10641377905531146 -0.015987351536750793
0.03995001733014503 0.10723817834778049 -0.01597292535007
0.04061115204999366 0.10806110242529132 -0.01595853827893734
0.04127103507230201 0.10888254383726337 -0.015944190323352814
0.04192996442029395 0.10970252121014812 -0.01592988148331642
0.042806808349584724 0.11053509378953197 -0.015911195427179337
0.043463174697851326 0.11135191211624362 -0.01589697226881981
0.04411846816251197 0.11216727757973888 -0.015882786363363266
0.04477262913892188 0.11298119390530803 -0.015868641436100006
0.045425598022436287 0.11379366109295108 -0.01585453562438488
0.04607767283627906 0.11460469776911952 -0.01584046706557274
0.046728436347936775 0.11541429275794246 -0.01582643948495388
0.04759484946439185 0.11623487362785556 -0.01580808311700821
0.04824316918561378 0.11704138780160167 -0.015794141218066216
0.04889047562787452 0.11784649009032466 -0.015780232846736908
0.04953676879117408 0.11865017676873424 -0.015766365453600883
0.05018204867551246 0.11945246646328189 -0.015752531588077545
0.05082625567624488 0.12025334799809673 -0.01573873683810234
0.05168331086347022 0.1210638370565913 -0.01572067104279995
0.05232513367841163 0.12186170483155467 -0.01570695824921131
0.05296576440045753 0.12265818307323673 -0.015693286433815956
0.05360526263425269 0.12345327550692775 -0.015679651871323586
0.05424386679837623 0.12424699703378894 -0.01566605269908905
0.05488133847424903 0.12503934392853 -0.01565249264240265
0.055407826301550056 0.1258253168515704 -0.015641184523701668
0.05586821257779517 0.12660724783463695 -0.01563122309744358
0.056213204261755134 0.12738317737503269 -0.015623601153492928
0.05655771910855689 0.12815834695620754 -0.015616004355251789
0.05690193593213477 0.1289327677540324 -0.015608428977429867
0.0572460335464231 0.12970644349379756 -0.015600873157382011
0.05758965432355323 0.1304793685875676 -0.015593341551721096
0.057933036682104255 0.13125155048592307 -0.015585829503834248
0.05839038312146583 0.13202729934973934 -0.015576038509607315
0.0587331694335691 0.13279788682384708 -0.015568571165204048
0.05907547890851417 0.13356773296518543 -0.015561128035187721
0.05941749036023536 0.13433684336168983 -0.01555370632559061
0.059759322998022224 0.13510523105187633 -0.015546302311122417
0.06010079800794044 0.13587288299722888 -0.015538922511041164
0.06044197499463477 0.13663980851097324 -0.015531563200056553
0.06089640080640235 0.1374095112286351 -0.015521939843893051
0.06123680293271461 0.13817487398309924 -0.01551462709903717
0.06157696664044776 0.13893951961918094 -0.015507334843277931
0.06191695153424659 0.13970344999952533 -0.01550006028264761
0.06225651919553199 0.14046666326148727 -0.015492809936404228
0.06259578883359351 0.1412291649930022 -0.015485581010580063
0.06293476044843116 0.14199095519407012 -0.015478374436497688
0.06338626563260474 0.14275474215073802 -0.015468916855752468
0.06372464120099464 0.14351501057071903 -0.015461751259863377
0.0640625995368711 0.14427457118554332 -0.01545460894703865
0.06440031945416846 0.1450334351710818 -0.015447487123310566
0.06473774134824195 0.14579159880204418 -0.015440386720001698
0.06507486521909156 0.14654906766636588 -0.01543330680578947
0.06541169106671729 0.14730584176404693 -0.01542624831199646
0.06586027562329688 0.14806384613884904 -0.015416954644024372
0.06619644581983009 0.1488191301204107 -0.015409938991069794
0.06653237759778419 0.14957372957988002 -0.015402943827211857
0.06686783253858009 0.15032764265461185 -0.015395971946418285
0.0671783131332151 0.15108054803831794 -0.015389518812298775
0.06731570183942237 0.15183070974571922 -0.01538656186312437
0.06745315015027442 0.1525805846057675 -0.01538361981511116
0.06763637482831397 0.15333064479900815 -0.015379771590232849
0.06777376353452125 0.1540799049861572 -0.015376860275864601
0.06791103303143897 0.15482888158558228 -0.015373965725302696
0.06804824292371192 0.1555775773912511 -0.01537108700722456
0.06818551242062965 0.15632599380014756 -0.015368222258985043
0.0683227223129026 0.15707413220925548 -0.015365373343229294
0.06845987260053077 0.15782199401555874 -0.015362540259957314
0.06864262044141212 0.15856973731106438 -0.01535880472511053
0.06877965151975074 0.15931700586488762 -0.015356003306806087
0.06891662299344459 0.16006400258893438 -0.015353217720985413
0.06905353486249366 0.1608107292294345 -0.01535044889897108
0.06919044673154273 0.16155718715426803 -0.015347694046795368
0.06932723939130225 0.16230337796414562 -0.015344955958425999
0.06946403205106177 0.16304930331798562 -0.015342232771217823
0.0696008247108213 0.16379496452546038 -0.015339525416493416
0.06978303610989967 0.1645401629820309 -0.015335917472839355
0.06991970956036964 0.1652852564319811 -0.015333241783082485
0.07005632340619483 0.16603009097425558 -0.015330580994486809
0.07019281804273048 0.1667746675401769 -0.015327936969697475
0.07032931267926612 0.16751898799239018 -0.015325307846069336
0.07046580731580177 0.1682630537278793 -0.01532269362360239
0.07060224234769263 0.16900686660928943 -0.015320096164941788
0.07078391730496802 0.16974991766883352 -0.015316600911319256
0.07092023312756934 0.1704931857265375 -0.01531403511762619
0.07105660855481544 0.17123620232714631 -0.015311481431126595
0.07119268595883765 0.17197897585256317 -0.015308947302401066
0.07132888257214942 0.17272150257749774 -0.015306427143514156
0.07146501958081641 0.17346378622724035 -0.015303922817111015
0.07160109698483863 0.17420582680179098 -0.015301433391869068
0.07178247391889014 0.17494680659992912 -0.015298047102987766
0.07191843211362281 0.1756883237711928 -0.015295589342713356
0.0720543307037107 0.17642960345519998 -0.015293147414922714
0.07219022929379859 0.1771706465832732 -0.015290720388293266
0.07232600867459693 0.17791145781202533 -0.015288309194147587
0.0724617284507505 0.1786520362101338 -0.01528591476380825
0.07259744822690406 0.17939238177759864 -0.015283535234630108
0.07277834832379737 0.18013136947674968 -0.01528026070445776
0.07291406809995093 0.18087121026737907 -0.015277909114956856
0.07304960906217017 0.1816108294032357 -0.015275576151907444
0.07318509041974464 0.18235022129638412 -0.015273258090019226
0.0733205717773191 0.18308939153475978 -0.015270955860614777
0.07345599353024879 0.18382833825571754 -0.015268668532371521
0.07359141528317847 0.18456706332190254 -0.01526639610528946
0.07377189814755836 0.18530413435919502 -0.015263231471180916
0.0739072006911985 0.1860423788629315 -0.015260988846421242
0.07404250323483863 0.1867804072998307 -0.015258762054145336
0.07417762696454444 0.18751822712047317 -0.015256553888320923
0.07431281029889503 0.18825582901163318 -0.015254358761012554
0.07444799363324561 0.18899321856124618 -0.015252177603542805
0.0745829385490171 0.1897304050825379 -0.015250016003847122
0.07476294457623878 0.1904656376890681 -0.015246960334479809
0.07489782988736549 0.19120236413700797 -0.015244828537106514
0.0750327151984922 0.19193888383133628 -0.015242711640894413
0.0751676005096189 0.19267519677205303 -0.015240608714520931
0.07530242621610084 0.1934113104097388 -0.015238520689308643
0.075437192317938 0.19414722288174846 -0.015236449427902699
0.0755718392104856 0.1948829416386626 -0.015234393998980522
0.07575148760983863 0.19561641032023647 -0.015231448225677013
0.07585967004010596 0.19635291511340358 -0.01522995438426733
0.07580382048795142 0.19709706792755344 -0.015231779776513577
0.07574785172650733 0.19784140700621822 -0.01523362286388874
0.07569206177899757 0.19858591372294643 -0.015235476195812225
0.0756360334129087 0.19933061415477016 -0.015237349085509777
0.07558000504681983 0.2000755008511088 -0.015239237807691097
0.0755054992408506 0.2008215349368594 -0.015241512097418308
0.0754495304794065 0.2015668053380988 -0.015243429690599442
0.07539350211331763 0.2023122657291434 -0.015245361253619194
0.07533753335187354 0.20305790865941264 -0.015247306786477566
0.07528156459042945 0.2038037490300677 -0.01524926908314228
0.07522565543363013 0.2045497719399474 -0.01525124255567789
0.07515085160443702 0.20529709125085094 -0.015253612771630287
0.0750949424476377 0.20604352394266345 -0.01525561697781086
0.07503891408154884 0.20679015780015209 -0.01525763887912035
0.07498294532010474 0.20753698537273624 -0.015259673818945885
0.07492691695401588 0.2082840103857062 -0.015261723659932613
0.07487094819257178 0.2090312440149329 -0.01526378933340311
0.07481486022183814 0.2097786788098357 -0.015265870839357376
0.0747401159972898 0.2105275366656325 -0.015268344432115555
0.07468402802655616 0.21127539986891963 -0.015270455740392208
0.07462805926511207 0.21202346423788287 -0.01527258101850748
0.0745720308990232 0.21277173722310283 -0.015274721197783947
0.07451600253293433 0.2135202188245795 -0.015276875346899033
0.07445997416684547 0.21426891276760318 -0.015279046259820461
0.07428372323224464 0.21502636486811855 -0.015283656306564808
0.07400858819196143 0.21579139048381069 -0.01529027707874775
0.07373315512845435 0.21655708292646625 -0.015296918340027332
0.07345754325101295 0.21732343474550464 -0.015303578227758408
0.07318175255963721 0.21809045339150646 -0.015310259535908699
0.07290578305432716 0.2188581351391814 -0.015316958539187908
0.07262951552579322 0.21962649861498096 -0.015323679894208908
0.07226086079785743 0.22040271500272968 -0.015332279726862907
0.07198417603681007 0.22117251644058444 -0.015339041128754616
0.07170731246182838 0.22194298843069293 -0.015345821157097816
0.07143021046826759 0.22271414214892604 -0.015352622605860233
0.07115304887006202 0.22348597014470317 -0.015359440818428993
0.07087564885327735 0.22425848359389522 -0.01536627858877182
0.07050532519528785 0.22503945345206477 -0.01537500973790884
0.07022732913205543 0.225813442116215 -0.015381892211735249
0.06994921385953345 0.22658811623378017 -0.015388792380690575
0.06967097937772193 0.22736347580476024 -0.015395712107419968
0.06939232766339698 0.22813955063147762 -0.015402655117213726
0.06916308819959083 0.22891190761847713 -0.015408615581691265
0.06879109561154761 0.2296976681999705 -0.015417476184666157
0.06851196706006446 0.230475866442158 -0.015424476936459541
0.06823271929929176 0.23125476503892162 -0.015431497246026993
0.06795299470136085 0.23203438634200313 -0.01543854083865881
0.06767327010342994 0.23281470054908016 -0.015445602126419544
0.06739330708691993 0.2335957300118945 -0.015452684834599495
0.06701952635953345 0.23438642287774303 -0.015461678616702557
0.06673914611051002 0.23516897225899913 -0.015468801371753216
0.06645852744290748 0.23595223689599254 -0.015475944615900517
0.06617778956601539 0.23673621678872325 -0.015483107417821884
0.06589663445660987 0.23752094173951366 -0.015490294434130192
0.06561547934720435 0.23830636704488017 -0.015497498214244843
0.06523997008511939 0.23910207415147045 -0.015506625175476074
0.06495821892926612 0.23988906407876232 -0.015513872727751732
0.0646763485641233 0.2406767767123721 -0.015521139837801456
0.0643941801757566 0.24146523440404155 -0.015528428368270397
0.06411183297345557 0.24225441480202892 -0.01553573738783598
0.06382930695722022 0.24304434025807597 -0.015543066896498203
0.06345218836972633 0.24384515846295574 -0.015552327036857605
0.063169125911688 0.24463666344208934 -0.015559699386358261
0.06288588463971534 0.24542891347928264 -0.015567093156278133
0.06260246455380836 0.24622190857453563 -0.015574506483972073
0.06231880604932227 0.2470156636290095 -0.015581941232085228
0.06194019734570899 0.24782081807179668 -0.015591314062476158
0.061656062004064704 0.2486161750010989 -0.015598791651427746
0.06137174784848609 0.2494122844390414 -0.0156062887981534
0.0610871356696836 0.2502091612867854 -0.01561380922794342
0.06080252349088111 0.25100678319258907 -0.015621347352862358
0.06051755368420997 0.25180517250819423 -0.015628907829523087
0.06013709723660865 0.2526156168632052 -0.01563842035830021
0.059851650592779304 0.2534156527571223 -0.01564602367579937
0.05956614434430518 0.2542164411596797 -0.015653647482395172
0.059280220863317634 0.2550180193237803 -0.015661293640732765
0.05899411856839576 0.25582037234826305 -0.01566896215081215
0.05861223160931983 0.2566353019527934 -0.015678588300943375
0.0583255332679502 0.2574393313579104 -0.01568630151450634
0.05803293406674781 0.25824485832972743 -0.01569415256381035
0.057469193336462165 0.2590854328326724 -0.01570751890540123
0.05690443932721534 0.25992743784709194 -0.015720924362540245
0.05615014254758277 0.2607951026610873 -0.015738192945718765
0.05558360039899268 0.2616401624135516 -0.0157516710460186
0.055016044971441413 0.2624866824798129 -0.01576518826186657
0.054447833892797615 0.263334610705807 -0.015778739005327225
0.053878728744482185 0.2641839917950175 -0.015792325139045715
0.053309027549719 0.26503478849454143 -0.015805942937731743
0.05254763781735816 0.26591267550511577 -0.015823470428586006
0.05197585046002784 0.2667666163496516 -0.0158371664583683
0.05140310942838111 0.2676220324091456 -0.01585090346634388
0.0508295935363523 0.26847890133185603 -0.015864672139286995
0.05025518357465186 0.26933725292010524 -0.015878479927778244
0.049487952587103035 0.2702238273076556 -0.01589622162282467
0.04891157567212501 0.2710853602938197 -0.015910107642412186
0.048334364292120124 0.27194837594552257 -0.015924029052257538
0.047756318447088386 0.27281288171334483 -0.015937987715005875
0.04717749774167457 0.2736788775972865 -0.015951979905366898
0.04640418708035865 0.274574303274586 -0.01596994511783123
0.04582328021237769 0.2754435401610873 -0.01598401926457882
0.04524153887936988 0.2763142895154498 -0.015998130664229393
0.04465890347669044 0.27718654388709285 -0.016012277454137802
0.04363185584256568 0.2781261217050097 -0.01603548415005207
0.042464498874639656 0.2790889378838084 -0.01606156677007675
0.04129368483731666 0.2800548386029742 -0.016087742522358894
0.04011941373059669 0.2810238387636683 -0.016114013269543648
0.03894162594983497 0.28199596071763255 -0.016140377148985863
0.03736567914197364 0.2830317329816363 -0.01617486961185932
0.03617960631558814 0.2840107169203303 -0.016201451420783997
0.03499019562909522 0.2849928450040362 -0.016228124499320984
0.03379697024533668 0.2859781842879794 -0.01625489816069603
0.03260040700147071 0.28696670496983745 -0.016281763091683388
0.03099912821957984 0.28802194560094097 -0.01631689816713333
0.029793981906866218 0.2890175219826243 -0.016343986615538597
0.028585318920110847 0.29001633191628673 -0.016371171921491623
0.027372960445379402 0.291018435006573 -0.016398457810282707
0.025750700828527595 0.29208975399060466 -0.016434121876955032
0.024529640075658943 0.29309905434174754 -0.016461635008454323
0.023305181858038093 0.2941116329483531 -0.016489239409565926
0.022076730129217292 0.2951275792173884 -0.016516951844096184
0.020844702121709968 0.29614687824769237 -0.01654476299881935
0.019195799228643562 0.2972386863283656 -0.016581103205680847
0.01795506894299903 0.2982653465322993 -0.01660914160311222
0.016710404750799324 0.2992954489044688 -0.0166372861713171
0.015461985465978767 0.3003289487413905 -0.016665533185005188
0.013791148063635017 0.30143765473885753 -0.016702426597476006
0.012533788082098152 0.3024787094645045 -0.016730908304452896
0.01127249419400611 0.30352326596303203 -0.016759496182203293
0.004800979492162849 0.30547950530572154 -0.016894521191716194
-0.0007687169342287525 0.07326375806851604 -0.050599779933691025
0.000964764949773933 0.07426890099568584 -0.050489261746406555
0.0026910346717587963 0.07526970023436763 -0.050379250198602676
0.0044102710456601635 0.0762661930374644 -0.05026973783969879
0.006122295257543708 0.07725838685555675 -0.050160735845565796
0.008394185897802497 0.0783033754877589 -0.05001780018210411
0.010089759227728035 0.07928628588242748 -0.049909938126802444
0.011778358814214851 0.08026500160021999 -0.04980256408452988
0.013460103866552497 0.08123955244345882 -0.04969567805528641
0.015134994384740974 0.08220996076388576 -0.04958927631378174
0.01680303036878028 0.0831762563638232 -0.04948335886001587
0.019016568061803962 0.08419076467080333 -0.04934439808130264
0.02066880881497779 0.08514815682692745 -0.04923957586288452
0.022314314243292 0.08610151076836803 -0.0491352304816246
0.023953263160680915 0.08705087119860866 -0.049031347036361694
0.025585417148565437 0.08799623811764934 -0.04892793670296669
0.027211253044103767 0.08893767858071544 -0.0488249845802784
0.02936864316174903 0.08992295826001384 -0.04868984594941139
0.03097898184964576 0.09085582310481288 -0.04858795925974846
0.03258306204984107 0.09178483599944331 -0.04848651587963104
0.03418088376233497 0.09271000439448573 -0.04838551953434944
0.03577202975461402 0.09363132828994014 -0.04828498885035515
0.03735691725919166 0.09454885983987071 -0.04818490147590637
0.03946042477795997 0.09550612533612468 -0.04805343225598335
0.04103064953992286 0.09641544634623744 -0.04795435816049576
0.042594735023473884 0.09732104951663234 -0.04785572364926338
0.04415262162396827 0.09822295719905116 -0.047757524996995926
0.04500925957868018 0.09906632566971996 -0.0477018877863884
0.045661870834325935 0.09989198411030986 -0.04765867441892624
0.0465304893226377 0.10073286408705928 -0.047602418810129166
0.04718059718320289 0.10155531505270221 -0.0475594624876976
0.04782963216016212 0.10237628707809665 -0.04751662164926529
0.048401717540716316 0.10319017732663371 -0.04747849702835083
0.04904872595975318 0.10400830323024013 -0.047435879707336426
0.049694721099828865 0.10482497254533985 -0.047393377870321274
0.05033964335629859 0.10564018899722316 -0.047350991517305374
0.05119789063641944 0.10646897295637348 -0.04729573428630829
0.0518403094978086 0.10728105271382549 -0.04725360497832298
0.05242753445813575 0.10808801019711711 -0.047214869409799576
0.052775446769689704 0.10887764135523059 -0.047190677374601364
0.05312306105801978 0.1096664753012202 -0.047166548669338226
0.05347031771848121 0.11045449713392475 -0.04714249446988106
0.05393296897122779 0.11124914625807025 -0.047111496329307556
0.05427956998059669 0.1120354581825278 -0.04708757624030113
0.05462569415280738 0.11282096916957118 -0.04706373065710068
0.05497169911572852 0.11360569412036159 -0.0470399409532547
0.05531734645078101 0.11438962558431842 -0.04701622202992439
0.05566263615796485 0.11517277101202228 -0.04699257016181946
0.05600780665585914 0.11595513785405376 -0.0469689778983593
0.0564673584670774 0.11674330124778964 -0.04693850502371788
0.05681157529065528 0.11752397680802562 -0.04691506549715996
0.05715567290494361 0.11830388495846011 -0.04689168184995651
0.05749941289136329 0.11908301824851253 -0.04686836153268814
0.05784285485455909 0.11986138040347316 -0.04684511199593544
0.05818581998059669 0.12063896397276141 -0.04682193323969841
0.05864298760602393 0.12142166609091976 -0.04679189622402191
0.05898535668561378 0.12219760680718639 -0.04676884785294533
0.05932760655591407 0.12297279501481273 -0.04674585908651352
0.05966937958905616 0.12374721581263759 -0.04672294482588768
0.06001091420361915 0.12452088410182216 -0.046700090169906616
0.060352091190313484 0.12529379243178584 -0.046677302569150925
0.06069302975842872 0.12606595570368984 -0.04665457829833031
0.06114703833768287 0.12684241796059825 -0.046625059098005295
0.0614872616500608 0.127612968181803 -0.04660247266292572
0.061827246543859626 0.12838277334494808 -0.04657994583249092
0.06216681420514503 0.12915183345003345 -0.04655749350786209
0.06250608384320655 0.12992015594763973 -0.046535100787878036
0.0628452938766233 0.1306877482883475 -0.04651276394724846
0.06318402707288184 0.1314545992962859 -0.04649049788713455
0.06363517462918677 0.13222496884091117 -0.046461477875709534
0.06397325217435279 0.13299024591369846 -0.04643934592604637
0.06431097209165015 0.1337547946922324 -0.04641728103160858
0.06464845359036842 0.13451862076444843 -0.04639527574181557
0.0649856370658628 0.13528172413034656 -0.046373333781957626
0.06532258212277808 0.13604410665257194 -0.04635145515203476
0.06565899073789039 0.13680576833112457 -0.04632965102791786
0.06610739648053565 0.13757017554862716 -0.04630112648010254
0.0664432090492002 0.13833029681964137 -0.04627944901585579
0.0667789024085752 0.13908971587343433 -0.046257827430963516
0.06711417853543677 0.13984842153413513 -0.046236272901296616
0.06744915663907447 0.14060642125232437 -0.04621478542685509
0.06778401553342261 0.14136372247858264 -0.046193353831768036
0.06811839759061256 0.1421203196249745 -0.04617198929190636
0.06856388270566383 0.14287888931257942 -0.04614395648241043
0.06889760911176124 0.14363397957904556 -0.046122729778289795
0.0692312163085691 0.14438838066680648 -0.04610154777765274
0.06956434666821876 0.14514208698792674 -0.046080444008111954
0.06989711939999976 0.14589510319901922 -0.04605940356850624
0.07022977292249122 0.1466474367506645 -0.046038415282964706
0.0705621284217588 0.14739908484889486 -0.046017494052648544
0.07100475251386085 0.1481519445977948 -0.045989952981472015
0.0713364523620359 0.14890212213767984 -0.045969158411026
0.07166779458234229 0.14965162167473056 -0.04594843089580536
0.07199889838406959 0.1504004460029147 -0.04592776298522949
0.07232964455792823 0.15114859791619994 -0.0459071584045887
0.07266027152249732 0.15189608113987663 -0.04588660970330238
0.07299036204526343 0.15264289381129958 -0.04586613550782204
0.0734303039283506 0.15339017307533243 -0.04583906754851341
0.07375979840466895 0.15413554964734533 -0.045818716287612915
0.07408917367169776 0.1548802668429754 -0.045798417180776596
0.07441813170621314 0.15562432419656136 -0.04577818885445595
0.07474679171750465 0.15636772450207093 -0.045758023858070374
0.07507521331021705 0.1571104719504557 -0.045737914741039276
0.07540345608899512 0.1578525679386995 -0.045717861503362656
0.07584053694913306 0.15859438778979995 -0.04569127410650253
0.07616788565823951 0.15933507887793996 -0.04567136615514755
0.0764951151580564 0.16007512572368898 -0.045651502907276154
0.07678318440625587 0.16081451086474874 -0.04563405364751816
0.0769172948570005 0.16155340688683384 -0.045625951141119
0.07705134570310035 0.16229204120727547 -0.04561789333820343
0.07718545615384498 0.16303041539768048 -0.04560988023877144
0.07731950699994483 0.16376853056399443 -0.04560190811753273
0.07749802291104713 0.16450619275829115 -0.04559129849076271
0.07763189494321265 0.16524375250710466 -0.04558342695236206
0.0777657073707334 0.16598105777202465 -0.04557560011744499
0.07789957940289893 0.16671811018286564 -0.045567817986011505
0.07803333222577491 0.16745491206793406 -0.0455600842833519
0.07816696583936134 0.16819146575553634 -0.04555240273475647
0.07830071866223731 0.16892776984868862 -0.04554475471377373
0.0784787577361814 0.16966332888378122 -0.04553447663784027
0.07861239134976783 0.17039909793211439 -0.04552692547440529
0.0787459057540647 0.17113462576790073 -0.045519426465034485
0.0788793605537168 0.17186991145981767 -0.045511968433856964
0.07901275574872413 0.17260495687051036 -0.04550455883145332
0.07914609133908668 0.1733397657252691 -0.04549720138311386
0.079279486534094 0.17407433523012616 -0.04548988118767738
0.07945722758481422 0.17480786444766738 -0.045479923486709595
0.07959038436124244 0.17554192265643098 -0.04547270014882088
0.07972354113767066 0.17627574803455093 -0.04546552523970604
0.07985675751874366 0.1770093415133498 -0.045458387583494186
0.07995373427579322 0.17774350123627403 -0.04545348510146141
0.07989836156079688 0.17848100626988628 -0.045457832515239716
0.07984298884580054 0.17921865472717502 -0.0454622246325016
0.07976901948163428 0.17995690854413726 -0.04546778276562691
0.07971370637128272 0.18069485874994018 -0.04547225683927536
0.07965821444699683 0.18143296169264533 -0.04547678679227829
0.0796028417320005 0.18217120619638183 -0.045481353998184204
0.07954746901700416 0.1829096015743754 -0.0454859659075737
0.07949197709271827 0.18364815155191638 -0.045490629971027374
0.07943660437772193 0.18438684495313384 -0.045495323836803436
0.0793625754089109 0.18512628900034644 -0.04550119489431381
0.07930720269391456 0.18586531022711017 -0.04550597816705704
0.07925177037427344 0.18660449164135673 -0.04551081359386444
0.07919621884534278 0.18734383138044097 -0.045515697449445724
0.07914078652570167 0.18808332758171775 -0.04552061855792999
0.07908535420606055 0.18882298210783222 -0.04552558436989784
0.07902980267712989 0.18956280613465526 -0.04553060233592987
0.0789558929176084 0.19030350187940814 -0.045536771416664124
0.07890046059796729 0.19104366490764835 -0.04554186761379242
0.07884484946439185 0.19178400116188743 -0.04554701969027519
0.07878941714475074 0.19252449760360935 -0.04555220529437065
0.07873386561582008 0.19326516727133014 -0.04555743932723999
0.07867837369153419 0.19400600830240466 -0.04556271806359291
0.07862282216260352 0.19474702069683292 -0.04556804150342941
0.07854879319379249 0.19548904637022235 -0.045574527233839035
0.0784933012695066 0.19623042384309985 -0.0455799363553524
0.07843774974057593 0.19697198012991168 -0.04558539390563965
0.07838231742093482 0.19771370778007724 -0.04559088870882988
0.07832670628735938 0.19845562169475772 -0.04559643566608429
0.07827109515378394 0.19919771814866283 -0.04560202732682228
0.07821554362485328 0.19993998969121196 -0.045607659965753555
0.07814139544675269 0.20068342352433421 -0.04561446234583855
0.0780859035224668 0.2014260824970744 -0.045620184391736984
0.07803035199353614 0.20216892773432948 -0.045625951141119
0.07797468125531593 0.2029119704119704 -0.0456317663192749
0.07791912972638526 0.20365519562883594 -0.045637622475624084
0.0778635781974546 0.2043986108355067 -0.04564352333545685
0.07778937041470924 0.20514330381674983 -0.04565059393644333
0.0777337592811338 0.20588712880535343 -0.045656587928533554
0.07767820775220313 0.20663114005847194 -0.045662619173526764
0.07762253701398292 0.20737535620255687 -0.04566870257258415
0.07756692588040748 0.20811976978702762 -0.045674826949834824
0.07751131474683204 0.2088643808118842 -0.04568099603056908
0.07745564400861182 0.20960919672770717 -0.04568721354007721
0.07738149583051124 0.21035542452855327 -0.04569459706544876
0.07732576548764625 0.21110066885276058 -0.045700907707214355
0.07727009474942603 0.2118461106173537 -0.045707255601882935
0.07721454322049537 0.21259176099820354 -0.045713648200035095
0.0771587532729856 0.2133376274458907 -0.045720092952251434
0.07710314213941016 0.21408369505925395 -0.04572657495737076
0.07702881514737525 0.21483130494280078 -0.045734237879514694
0.07697308480451026 0.21557781959099986 -0.04574081301689148
0.07691747367093482 0.21632454658074596 -0.04574742913246155
0.07686174332806983 0.21707149336261966 -0.045754093676805496
0.0768221062392942 0.21781744921727397 -0.045759834349155426
0.07676643550107398 0.2185648169569514 -0.04576658830046654
0.07671076476285377 0.21931240076346614 -0.04577338695526123
0.0766363185615293 0.2200616684011958 -0.045781366527080536
0.07658064782330909 0.22080971414370754 -0.04578825458884239
0.07652485787579932 0.2215579945795081 -0.045795194804668427
0.07646906792828956 0.22230650225801685 -0.04580217972397804
0.0764135163993589 0.22305521855278232 -0.045809198170900345
0.07635772645184913 0.2238041844419978 -0.045816272497177124
0.07628333985516944 0.22455493474526622 -0.04582452028989792
0.07622760951230445 0.2253043737463496 -0.04583168029785156
0.07617193877408424 0.22605404371543147 -0.04583888500928879
0.0761160892219297 0.22680395955367305 -0.04584614187479019
0.07606023966977515 0.22755412126107433 -0.045853447169065475
0.07600450932691016 0.2283044990353129 -0.045860789716243744
0.07593012273023048 0.2290567990593455 -0.045869309455156326
0.07587427317807593 0.22980769092364528 -0.04587675258517265
0.07581854283521094 0.23055881375594356 -0.045884229242801666
0.0757626932830564 0.23131018990798213 -0.04589175805449486
0.07570690333554664 0.232061819379761 -0.04589933156967163
0.07546830594251075 0.23283099496884563 -0.045918043702840805
0.0751024526328794 0.23361295575423457 -0.04594452679157257
0.07482797324368873 0.2343869518689654 -0.045965515077114105
0.07455319583127418 0.23516166323943355 -0.04598657041788101
0.0742782396049253 0.2359370675138972 -0.0460076779127121
0.07400316416928687 0.23671317959351756 -0.046028848737478256
0.07372790991971412 0.23748999947829463 -0.04605007544159889
0.07336026847073951 0.23827689999861934 -0.04607696086168289
0.07308459698865333 0.23905523980183818 -0.04609831050038338
0.07280850827405372 0.23983430976195552 -0.04611973091959953
0.07253241955945411 0.24061408752722957 -0.04614120349287987
0.07225603282163062 0.24139459544940212 -0.046162739396095276
0.07197940766522803 0.24217582607789256 -0.04618433862924576
0.07161015689084449 0.2429677259377978 -0.046211618930101395
0.07133311450192847 0.24375050628705242 -0.046233344823122025
0.07105601250836768 0.24453400189204433 -0.04625512287020683
0.07077849328229346 0.24531825745625713 -0.04627697542309761
0.07050079524228492 0.24610324317736842 -0.046298883855342865
0.07013017356107154 0.2468993973187945 -0.046326495707035065
0.06985211789319434 0.24768594021125057 -0.04634852707386017
0.06957376420209327 0.2484732505135081 -0.04637062922120094
0.06923360049436011 0.2492684062771342 -0.04639653488993645
0.06868595301816383 0.25008858109040477 -0.04643511772155762
0.06816929995725074 0.2509063717178843 -0.046471863985061646
0.06743663966367164 0.2517509471826098 -0.046521808952093124
0.06688642918775001 0.25257536137624004 -0.046560704708099365
0.06633538424680152 0.2534011464767001 -0.04659970849752426
0.06578356444547095 0.2542282950334094 -0.046638812869787216
0.06523085057446876 0.2550568368486903 -0.04667802155017853
0.0644927662582151 0.25590953344626644 -0.046728577464818954
0.06393826424786964 0.25674103314204433 -0.04676800221204758
0.06338292777249732 0.25757394099755504 -0.04680754244327545
0.0628268760413877 0.258408212309315 -0.04684717208147049
0.06227010905454078 0.25924388433022716 -0.046886906027793884
0.06152612387845435 0.2601048808745883 -0.04693809524178505
0.06096738993832984 0.260943592732384 -0.04697806388139725
0.06040770232388892 0.2617837202004931 -0.0470181368291378
0.059847359058355476 0.26262525582833507 -0.04705830663442612
0.05928618132779517 0.26346821451707103 -0.047098588198423386
0.058724169132208015 0.264312596266701 -0.04713897034525871
