0.055276 -0.032157 -0.107549
0.055461 -0.031081 -0.107632
0.055647 -0.030004 -0.107715
0.055832 -0.028926 -0.107800
0.055826 -0.027773 -0.107936
0.056012 -0.026693 -0.108022
0.056198 -0.025611 -0.108108
0.056384 -0.024528 -0.108196
0.056412 -0.023381 -0.108326
0.056814 -0.022382 -0.108358
0.057217 -0.021383 -0.108391
0.057619 -0.020383 -0.108424
0.058045 -0.019394 -0.108451
0.058447 -0.018394 -0.108486
0.058850 -0.017395 -0.108521
0.059252 -0.016396 -0.108557
0.059678 -0.015406 -0.108587
0.060081 -0.014406 -0.108624
0.060484 -0.013407 -0.108662
0.060909 -0.012417 -0.108694
0.061312 -0.011417 -0.108733
0.061715 -0.010417 -0.108773
0.062388 -0.009535 -0.108740
0.062814 -0.008546 -0.108775
0.063216 -0.007546 -0.108817
0.063619 -0.006547 -0.108859
0.064022 -0.005547 -0.108902
0.064448 -0.004557 -0.108939
0.064851 -0.003556 -0.108984
0.065254 -0.002556 -0.109029
0.065657 -0.001555 -0.109074
0.066050 -0.000549 -0.109123
0.066409 0.000473 -0.109182
0.066769 0.001496 -0.109242
0.067128 0.002519 -0.109302
0.067467 0.003553 -0.109369
0.067827 0.004577 -0.109430
0.068187 0.005602 -0.109493
0.068527 0.006637 -0.109561
0.068887 0.007663 -0.109625
0.069248 0.008690 -0.109689
0.069610 0.009717 -0.109754
0.069950 0.010755 -0.109826
0.070312 0.011784 -0.109892
0.070674 0.012813 -0.109959
0.071036 0.013843 -0.110027
0.071377 0.014884 -0.110101
0.071740 0.015915 -0.110170
0.072103 0.016947 -0.110240
0.072731 0.017843 -0.110237
0.073094 0.018875 -0.110308
0.073458 0.019908 -0.110380
0.073821 0.020943 -0.110452
0.074165 0.021988 -0.110532
0.074443 0.023070 -0.110630
0.071781 0.025733 -0.111560
0.069078 0.028438 -0.112505
0.063144 0.032920 -0.114370
0.060306 0.035750 -0.115362
0.057423 0.038626 -0.116371
0.051218 0.043362 -0.118330
0.048296 0.046315 -0.119360
0.045370 0.049292 -0.120394
0.042640 0.052181 -0.121377
-0.030549 -0.055090 -0.132250
-0.027803 -0.054523 -0.131643
-0.022823 -0.054570 -0.130440
-0.020151 -0.054014 -0.129851
-0.012858 -0.054737 -0.128028
-0.001861 -0.056522 -0.125212
0.004265 -0.057003 -0.123694
0.007478 -0.056692 -0.122954
0.010652 -0.056386 -0.122224
0.013787 -0.056083 -0.121504
0.019546 -0.056556 -0.120078
0.022574 -0.056259 -0.119384
0.025566 -0.055966 -0.118699
0.028522 -0.055676 -0.118023
0.030509 -0.055109 -0.117608
0.031543 -0.054261 -0.117450
0.032572 -0.053417 -0.117293
0.033599 -0.052575 -0.117137
0.035255 -0.051932 -0.116811
0.036273 -0.051097 -0.116658
0.037288 -0.050264 -0.116506
0.038924 -0.049633 -0.116186
0.039931 -0.048806 -0.116037
0.040934 -0.047982 -0.115889
0.041935 -0.047161 -0.115742
0.043545 -0.046544 -0.115429
0.044537 -0.045729 -0.115285
0.045527 -0.044916 -0.115142
0.046513 -0.044106 -0.115000
0.048098 -0.043503 -0.114694
0.049077 -0.042699 -0.114555
0.050052 -0.041896 -0.114416
0.051025 -0.041097 -0.114279
0.052586 -0.040507 -0.113980
0.053551 -0.039713 -0.113845
0.054513 -0.038922 -0.113712
0.055473 -0.038132 -0.113579
0.057010 -0.037556 -0.113287
0.057962 -0.036772 -0.113157
0.058911 -0.035990 -0.113028
0.059857 -0.035210 -0.112900
0.061024 -0.034516 -0.112711
0.061209 -0.033456 -0.112796
0.061394 -0.032396 -0.112881
0.061580 -0.031334 -0.112967
0.061579 -0.030200 -0.113106
0.061764 -0.029135 -0.113193
0.061950 -0.028070 -0.113281
0.062137 -0.027004 -0.113370
0.062136 -0.025862 -0.113512
0.062323 -0.024793 -0.113603
0.062510 -0.023723 -0.113694
0.062697 -0.022652 -0.113786
0.062697 -0.021503 -0.113932
0.062885 -0.020429 -0.114026
0.063073 -0.019354 -0.114120
0.063261 -0.018278 -0.114215
0.063262 -0.017122 -0.114365
0.063451 -0.016042 -0.114461
0.063639 -0.014962 -0.114559
0.063641 -0.013800 -0.114711
0.063916 -0.012753 -0.114786
0.064316 -0.011759 -0.114826
0.064716 -0.010766 -0.114867
0.065139 -0.009782 -0.114901
0.065539 -0.008789 -0.114944
0.065939 -0.007795 -0.114986
0.066339 -0.006800 -0.115030
0.066762 -0.005816 -0.115067
0.067163 -0.004822 -0.115112
0.067563 -0.003827 -0.115158
0.067964 -0.002832 -0.115204
0.068387 -0.001847 -0.115244
0.068788 -0.000852 -0.115292
0.069189 0.000144 -0.115340
0.069590 0.001140 -0.115389
0.069937 0.002162 -0.115455
0.070295 0.003180 -0.115518
0.070653 0.004198 -0.115582
0.071275 0.005089 -0.115569
0.071633 0.006108 -0.115634
0.071992 0.007127 -0.115700
0.072350 0.008146 -0.115767
0.072689 0.009177 -0.115840
0.073048 0.010198 -0.115908
0.073407 0.011220 -0.115977
0.073767 0.012242 -0.116047
0.074106 0.013276 -0.116123
0.074467 0.014299 -0.116194
0.074827 0.015324 -0.116266
0.073818 0.017058 -0.116745
0.071158 0.019663 -0.117719
0.068456 0.022308 -0.118708
0.065712 0.024996 -0.119714
0.059792 0.029389 -0.121673
0.057015 0.032146 -0.122698
0.054194 0.034947 -0.123740
0.051328 0.037793 -0.124799
0.045128 0.042472 -0.126866
0.040232 0.046481 -0.128547
0.037438 0.049370 -0.129599
-0.032577 -0.056094 -0.140662
-0.029812 -0.055521 -0.140011
-0.027074 -0.054953 -0.139367
-0.022109 -0.054995 -0.138094
-0.019183 -0.054509 -0.137395
-0.002738 -0.057736 -0.132868
0.002255 -0.057885 -0.131579
0.007910 -0.058242 -0.130101
0.011075 -0.057926 -0.129327
0.014202 -0.057615 -0.128563
0.017292 -0.057307 -0.127809
0.022964 -0.057762 -0.126319
0.025948 -0.057460 -0.125593
0.027141 -0.056644 -0.125377
0.028185 -0.055789 -0.125204
0.029873 -0.055130 -0.124848
0.030908 -0.054282 -0.124678
0.031940 -0.053436 -0.124509
0.032969 -0.052592 -0.124341
0.034629 -0.051949 -0.123993
0.035650 -0.051113 -0.123828
0.036667 -0.050279 -0.123665
0.038306 -0.049647 -0.123323
0.039315 -0.048819 -0.123162
0.040321 -0.047994 -0.123003
0.041324 -0.047172 -0.122845
0.042938 -0.046554 -0.122511
0.043932 -0.045738 -0.122356
0.044924 -0.044924 -0.122202
0.045912 -0.044112 -0.122049
0.047501 -0.043509 -0.121722
0.048482 -0.042703 -0.121572
0.049460 -0.041900 -0.121423
0.050434 -0.041100 -0.121275
0.051999 -0.040510 -0.120956
0.052966 -0.039714 -0.120811
0.053930 -0.038922 -0.120667
0.054892 -0.038131 -0.120524
0.056432 -0.037554 -0.120212
0.057386 -0.036769 -0.120072
0.058338 -0.035986 -0.119933
0.059286 -0.035206 -0.119795
0.060803 -0.034641 -0.119490
0.061745 -0.033865 -0.119355
0.062683 -0.033092 -0.119220
0.063619 -0.032321 -0.119087
0.064389 -0.031490 -0.119004
0.064788 -0.030516 -0.119030
0.065188 -0.029543 -0.119057
0.065588 -0.028570 -0.119085
0.066016 -0.027609 -0.119105
0.066416 -0.026636 -0.119135
0.066815 -0.025663 -0.119165
0.067215 -0.024690 -0.119195
0.067644 -0.023730 -0.119218
0.068043 -0.022757 -0.119250
0.068442 -0.021784 -0.119283
0.068842 -0.020811 -0.119317
0.069231 -0.019834 -0.119354
0.069420 -0.018772 -0.119452
0.069609 -0.017709 -0.119552
0.069616 -0.016567 -0.119707
0.069805 -0.015501 -0.119808
0.069995 -0.014434 -0.119909
0.070184 -0.013366 -0.120012
0.070193 -0.012216 -0.120171
0.070383 -0.011145 -0.120275
0.070574 -0.010072 -0.120380
0.070765 -0.008998 -0.120486
0.070774 -0.007840 -0.120648
0.070966 -0.006763 -0.120756
0.071158 -0.005685 -0.120864
0.071350 -0.004605 -0.120974
0.071956 -0.003714 -0.120957
0.072149 -0.002633 -0.121068
0.072342 -0.001550 -0.121180
0.072536 -0.000466 -0.121292
0.072829 0.000572 -0.121375
0.073227 0.001562 -0.121426
0.073626 0.002551 -0.121478
0.074034 0.003537 -0.121528
0.074390 0.004548 -0.121595
0.074746 0.005559 -0.121662
0.075102 0.006572 -0.121730
0.075438 0.007595 -0.121806
0.074377 0.009316 -0.122318
0.071749 0.011833 -0.123322
0.069166 0.014346 -0.124315
0.063491 0.018449 -0.126281
0.060785 0.021072 -0.127321
0.058037 0.023737 -0.128379
0.052008 0.028120 -0.130473
0.049126 0.030905 -0.131582
0.046198 0.033736 -0.132710
0.041355 0.037597 -0.134448
0.035363 0.042100 -0.136556
0.032512 0.044971 -0.137674
0.029618 0.047886 -0.138811
-0.039889 -0.057067 -0.150631
-0.037055 -0.056480 -0.149921
-0.031910 -0.056507 -0.148522
-0.029153 -0.055932 -0.147834
-0.026422 -0.055363 -0.147152
-0.021470 -0.055402 -0.145807
-0.009740 -0.057299 -0.142433
0.002699 -0.059449 -0.138842
0.005926 -0.059122 -0.138005
0.011856 -0.059563 -0.136356
0.014970 -0.059242 -0.135550
0.018047 -0.058925 -0.134755
0.021088 -0.058613 -0.133969
0.024333 -0.058374 -0.133122
0.025386 -0.057512 -0.132934
0.026436 -0.056652 -0.132747
0.027483 -0.055795 -0.132562
0.029174 -0.055136 -0.132182
0.030212 -0.054286 -0.132000
0.031247 -0.053438 -0.131819
0.032279 -0.052594 -0.131639
0.034000 -0.051967 -0.131251
0.035022 -0.051130 -0.131075
0.036042 -0.050295 -0.130900
0.037685 -0.049662 -0.130535
0.038696 -0.048833 -0.130363
0.039704 -0.048007 -0.130192
0.040709 -0.047183 -0.130023
0.042327 -0.046565 -0.129667
0.043324 -0.045748 -0.129501
0.044318 -0.044933 -0.129335
0.045308 -0.044120 -0.129172
0.046901 -0.043516 -0.128823
0.047884 -0.042709 -0.128663
0.048864 -0.041905 -0.128503
0.049841 -0.041104 -0.128345
0.051409 -0.040513 -0.128004
0.052378 -0.039717 -0.127849
0.053344 -0.038923 -0.127695
0.054308 -0.038131 -0.127541
0.055163 -0.037304 -0.127422
0.055569 -0.036316 -0.127443
0.055976 -0.035327 -0.127464
0.056382 -0.034339 -0.127486
0.056818 -0.033363 -0.127499
0.057224 -0.032375 -0.127523
0.057630 -0.031388 -0.127547
0.058036 -0.030400 -0.127572
0.058472 -0.029424 -0.127588
0.058878 -0.028437 -0.127615
0.059284 -0.027450 -0.127642
0.059690 -0.026463 -0.127670
0.060126 -0.025488 -0.127689
0.060531 -0.024501 -0.127719
0.060937 -0.023515 -0.127749
0.061343 -0.022528 -0.127780
0.061779 -0.021553 -0.127803
0.062184 -0.020567 -0.127835
0.062590 -0.019580 -0.127869
0.062996 -0.018593 -0.127903
0.063431 -0.017619 -0.127928
0.063837 -0.016632 -0.127964
0.064243 -0.015645 -0.128000
0.064094 -0.014421 -0.128214
0.064500 -0.013433 -0.128252
0.064906 -0.012445 -0.128291
0.065313 -0.011456 -0.128330
0.065749 -0.010481 -0.128361
0.066156 -0.009492 -0.128402
0.066563 -0.008503 -0.128444
0.066969 -0.007514 -0.128487
0.067406 -0.006538 -0.128520
0.067813 -0.005549 -0.128564
0.068219 -0.004559 -0.128609
0.068626 -0.003570 -0.128655
0.069201 -0.002657 -0.128647
0.069874 -0.001791 -0.128608
0.070546 -0.000926 -0.128570
0.071217 -0.000062 -0.128532
0.072181 0.000662 -0.128401
0.072850 0.001524 -0.128365
0.073518 0.002385 -0.128330
0.069680 0.005422 -0.129770
0.067082 0.007882 -0.130808
0.064445 0.010380 -0.131862
0.061768 0.012916 -0.132934
0.055893 0.017055 -0.135061
0.053087 0.019704 -0.136185
0.050236 0.022396 -0.137327
0.045160 0.026231 -0.139209
0.039319 0.030488 -0.141350
0.036542 0.033220 -0.142482
0.033723 0.035994 -0.143633
0.027529 0.040534 -0.145910
0.024576 0.043430 -0.147116
-0.044863 -0.058699 -0.160146
-0.041982 -0.058098 -0.159382
-0.039129 -0.057504 -0.158625
-0.036303 -0.056916 -0.157877
-0.031174 -0.056939 -0.156404
-0.028425 -0.056363 -0.155678
-0.025774 -0.055774 -0.154983
-0.016941 -0.056850 -0.152339
-0.000661 -0.059982 -0.147343
0.006357 -0.060672 -0.145262
0.009536 -0.060340 -0.144391
0.015377 -0.060763 -0.142677
0.018445 -0.060438 -0.141839
0.020889 -0.059950 -0.141198
0.021954 -0.059079 -0.140994
0.023677 -0.058403 -0.140581
0.024733 -0.057539 -0.140380
0.025785 -0.056678 -0.140181
0.026834 -0.055820 -0.139983
0.028530 -0.055159 -0.139580
0.029570 -0.054308 -0.139385
0.030607 -0.053460 -0.139192
0.031641 -0.052614 -0.139001
0.033310 -0.051969 -0.138607
0.034335 -0.051130 -0.138418
0.035357 -0.050294 -0.138231
0.037005 -0.049660 -0.137844
0.038018 -0.048830 -0.137661
0.039029 -0.048003 -0.137478
0.040036 -0.047178 -0.137298
0.041658 -0.046559 -0.136919
0.042657 -0.045741 -0.136741
0.043653 -0.044925 -0.136565
0.044578 -0.044088 -0.136412
0.045024 -0.043092 -0.136415
0.045438 -0.042085 -0.136428
0.045852 -0.041079 -0.136443
0.046266 -0.040073 -0.136458
0.046712 -0.039079 -0.136464
0.047125 -0.038074 -0.136481
0.047539 -0.037069 -0.136498
0.047953 -0.036064 -0.136517
0.048398 -0.035071 -0.136526
0.048811 -0.034066 -0.136546
0.049224 -0.033062 -0.136567
0.049638 -0.032058 -0.136588
0.050083 -0.031066 -0.136601
0.050496 -0.030062 -0.136624
0.050909 -0.029059 -0.136648
0.051322 -0.028056 -0.136673
0.051766 -0.027064 -0.136688
0.052179 -0.026061 -0.136715
0.052592 -0.025058 -0.136742
0.053005 -0.024055 -0.136771
0.053449 -0.023065 -0.136789
0.053862 -0.022062 -0.136819
0.054275 -0.021060 -0.136850
0.054687 -0.020057 -0.136881
0.055131 -0.019067 -0.136903
0.055544 -0.018064 -0.136936
0.055957 -0.017062 -0.136970
0.056429 -0.016084 -0.136985
0.057431 -0.015328 -0.136823
0.058121 -0.014443 -0.136766
0.058810 -0.013560 -0.136710
0.059806 -0.012809 -0.136552
0.060492 -0.011929 -0.136498
0.061178 -0.011050 -0.136445
0.061862 -0.010172 -0.136393
0.062850 -0.009428 -0.136239
0.063532 -0.008552 -0.136189
0.064213 -0.007678 -0.136140
0.064893 -0.006805 -0.136091
0.065873 -0.006067 -0.135942
0.066551 -0.005196 -0.135895
0.067228 -0.004326 -0.135849
0.067904 -0.003457 -0.135805
0.068876 -0.002726 -0.135659
0.069549 -0.001860 -0.135617
0.067999 0.000045 -0.136335
0.065389 0.002461 -0.137419
0.059663 0.006371 -0.139577
0.054745 0.009932 -0.141464
0.051938 0.012514 -0.142630
0.045826 0.016710 -0.144939
0.043160 0.019274 -0.146067
0.040454 0.021876 -0.147212
0.037708 0.024517 -0.148375
0.031673 0.028804 -0.150682
0.028799 0.031559 -0.151900
0.025880 0.034357 -0.153137
0.022917 0.037198 -0.154395
0.016415 0.041855 -0.156891
-0.041296 -0.058518 -0.167488
-0.038450 -0.057923 -0.166692
-0.035631 -0.057333 -0.165905
-0.030516 -0.057352 -0.164358
-0.027774 -0.056775 -0.163594
-0.025058 -0.056204 -0.162839
-0.006677 -0.059827 -0.156889
0.007153 -0.062318 -0.152439
0.010318 -0.061976 -0.151525
0.013446 -0.061640 -0.150623
0.018018 -0.061719 -0.149239
0.019092 -0.060840 -0.149019
0.020163 -0.059965 -0.148800
0.021231 -0.059093 -0.148583
0.022959 -0.058415 -0.148146
0.024017 -0.057550 -0.147932
0.025072 -0.056688 -0.147720
0.026124 -0.055829 -0.147510
0.027824 -0.055167 -0.147082
0.028925 -0.054332 -0.146856
0.029964 -0.053483 -0.146651
0.031000 -0.052636 -0.146447
0.032673 -0.051990 -0.146029
0.033700 -0.051150 -0.145829
0.034723 -0.050312 -0.145631
0.035178 -0.049298 -0.145624
0.035600 -0.048273 -0.145630
0.036022 -0.047249 -0.145637
0.036443 -0.046226 -0.145644
0.036898 -0.045213 -0.145642
0.037319 -0.044191 -0.145651
0.037740 -0.043168 -0.145661
0.038162 -0.042146 -0.145672
0.038616 -0.041135 -0.145673
0.039036 -0.040114 -0.145685
0.039457 -0.039093 -0.145699
0.039878 -0.038072 -0.145713
0.040331 -0.037063 -0.145717
0.040752 -0.036043 -0.145734
0.041172 -0.035023 -0.145751
0.041592 -0.034003 -0.145769
0.042045 -0.032995 -0.145776
0.042465 -0.031976 -0.145796
0.042885 -0.030956 -0.145816
0.043572 -0.030036 -0.145746
0.044609 -0.029248 -0.145555
0.045319 -0.028340 -0.145477
0.046028 -0.027434 -0.145401
0.046736 -0.026530 -0.145325
0.047764 -0.025749 -0.145139
0.048469 -0.024848 -0.145066
0.049174 -0.023948 -0.144993
0.049877 -0.023050 -0.144922
0.050896 -0.022277 -0.144741
0.051596 -0.021382 -0.144671
0.052296 -0.020488 -0.144603
0.052994 -0.019594 -0.144535
0.054005 -0.018830 -0.144359
0.054700 -0.017940 -0.144293
0.055395 -0.017051 -0.144229
0.056088 -0.016163 -0.144165
0.057091 -0.015406 -0.143994
0.057782 -0.014522 -0.143932
0.058472 -0.013638 -0.143871
0.059468 -0.012886 -0.143703
0.060155 -0.012006 -0.143645
0.060842 -0.011126 -0.143587
0.061500 -0.010235 -0.143540
0.062489 -0.009491 -0.143377
0.063172 -0.008615 -0.143322
0.063854 -0.007740 -0.143268
0.064535 -0.006866 -0.143216
0.063874 -0.005390 -0.143642
0.061221 -0.003007 -0.144783
0.058527 -0.000588 -0.145942
0.055792 0.001869 -0.147119
0.049800 0.005847 -0.149470
0.046932 0.008413 -0.150705
0.044251 0.010913 -0.151877
0.041575 0.013428 -0.153051
0.035693 0.017479 -0.155386
0.032894 0.020101 -0.156614
0.030052 0.022763 -0.157862
0.023815 0.027082 -0.160345
0.020839 0.029860 -0.161653
0.017816 0.032682 -0.162982
0.014746 0.035548 -0.164332
-0.029789 -0.057785 -0.172340
-0.027055 -0.057207 -0.171539
-0.024346 -0.056635 -0.170746
0.003154 -0.062680 -0.161320
0.011094 -0.063605 -0.158696
0.014208 -0.063259 -0.157751
0.015582 -0.062451 -0.157413
0.017343 -0.061755 -0.156940
0.018420 -0.060875 -0.156706
0.019493 -0.059999 -0.156474
0.020563 -0.059126 -0.156244
0.022296 -0.058447 -0.155781
0.023356 -0.057581 -0.155555
0.023865 -0.056557 -0.155523
0.024296 -0.055511 -0.155519
0.024762 -0.054476 -0.155504
0.025193 -0.053431 -0.155502
0.025624 -0.052387 -0.155500
0.026054 -0.051343 -0.155500
0.026519 -0.050310 -0.155489
0.026949 -0.049267 -0.155490
0.027379 -0.048225 -0.155493
0.028052 -0.047260 -0.155410
0.028791 -0.046318 -0.155305
0.029528 -0.045377 -0.155200
0.030264 -0.044438 -0.155097
0.031339 -0.043613 -0.154874
0.032071 -0.042678 -0.154773
0.032803 -0.041745 -0.154674
0.033533 -0.040813 -0.154575
0.034599 -0.039997 -0.154357
0.035326 -0.039069 -0.154261
0.036052 -0.038143 -0.154166
0.036776 -0.037218 -0.154072
0.037832 -0.036412 -0.153859
0.038554 -0.035491 -0.153767
0.039274 -0.034571 -0.153677
0.039994 -0.033653 -0.153587
0.041041 -0.032856 -0.153379
0.041757 -0.031941 -0.153292
0.042472 -0.031028 -0.153205
0.043186 -0.030117 -0.153120
0.044224 -0.029328 -0.152918
0.044935 -0.028420 -0.152835
0.045645 -0.027513 -0.152753
0.046354 -0.026608 -0.152672
0.047383 -0.025827 -0.152475
0.048089 -0.024925 -0.152396
0.048794 -0.024024 -0.152318
0.049498 -0.023125 -0.152241
0.050519 -0.022352 -0.152049
0.051220 -0.021455 -0.151974
0.051920 -0.020561 -0.151901
0.052619 -0.019667 -0.151828
0.053632 -0.018902 -0.151641
0.054328 -0.018011 -0.151571
0.055023 -0.017121 -0.151501
0.055718 -0.016233 -0.151433
0.056722 -0.015475 -0.151251
0.057413 -0.014590 -0.151185
0.058104 -0.013706 -0.151119
0.059101 -0.012953 -0.150941
0.059789 -0.012072 -0.150878
0.060477 -0.011192 -0.150816
0.061163 -0.010312 -0.150755
0.056440 -0.007071 -0.152709
0.053691 -0.004667 -0.153933
0.050899 -0.002226 -0.155177
0.048064 0.000253 -0.156442
0.042281 0.004074 -0.158814
0.039593 0.006534 -0.160033
0.036866 0.009031 -0.161272
0.034098 0.011565 -0.162529
0.028022 0.015641 -0.165036
0.022832 0.019347 -0.167217
0.019857 0.022052 -0.168569
-0.019689 -0.058106 -0.177269
0.011503 -0.065132 -0.166038
0.012310 -0.064160 -0.165888
0.013077 -0.063179 -0.165754
0.013843 -0.062201 -0.165621
0.014968 -0.061324 -0.165357
0.015730 -0.060350 -0.165227
0.016491 -0.059379 -0.165098
0.017251 -0.058409 -0.164970
0.018365 -0.057543 -0.164712
0.019121 -0.056578 -0.164586
0.019876 -0.055615 -0.164462
0.020629 -0.054654 -0.164339
0.021733 -0.053799 -0.164087
0.022483 -0.052842 -0.163967
0.023232 -0.051887 -0.163847
0.023979 -0.050934 -0.163729
0.025073 -0.050090 -0.163483
0.025817 -0.049141 -0.163367
0.026559 -0.048193 -0.163253
0.027645 -0.047357 -0.163011
0.028385 -0.046414 -0.162899
0.029123 -0.045473 -0.162788
0.029859 -0.044533 -0.162678
0.030936 -0.043707 -0.162443
0.031669 -0.042771 -0.162335
0.032402 -0.041837 -0.162229
0.033133 -0.040904 -0.162124
0.034200 -0.040088 -0.161894
0.034957 -0.039169 -0.161780
0.035684 -0.038242 -0.161679
0.036409 -0.037317 -0.161578
0.037467 -0.036509 -0.161354
0.038189 -0.035588 -0.161256
0.038910 -0.034668 -0.161159
0.039630 -0.033749 -0.161063
0.040679 -0.032950 -0.160844
0.041396 -0.032035 -0.160751
0.042112 -0.031122 -0.160658
0.042826 -0.030210 -0.160567
0.043866 -0.029420 -0.160354
0.044578 -0.028511 -0.160265
0.045288 -0.027604 -0.160177
0.045998 -0.026698 -0.160090
0.047029 -0.025916 -0.159882
0.047735 -0.025014 -0.159798
0.048441 -0.024112 -0.159714
0.049118 -0.023201 -0.159643
0.050140 -0.022428 -0.159440
0.050842 -0.021531 -0.159360
0.051542 -0.020635 -0.159281
0.052242 -0.019741 -0.159204
0.053256 -0.018975 -0.159006
0.053953 -0.018083 -0.158930
0.054649 -0.017193 -0.158856
0.055344 -0.016304 -0.158783
0.056349 -0.015546 -0.158590
0.055325 -0.013940 -0.159184
0.052575 -0.011598 -0.160449
0.046554 -0.007849 -0.162988
0.043941 -0.005519 -0.164210
0.041293 -0.003157 -0.165450
0.038606 -0.000760 -0.166708
0.032707 0.003058 -0.169224
0.029897 0.005555 -0.170541
0.020978 -0.046674 -0.172965
0.027266 -0.047465 -0.170691
0.028006 -0.046522 -0.170572
0.028745 -0.045580 -0.170454
0.029482 -0.044639 -0.170338
0.030560 -0.043812 -0.170089
0.031295 -0.042876 -0.169975
0.032028 -0.041941 -0.169862
0.032760 -0.041008 -0.169751
0.033828 -0.040190 -0.169508
0.034556 -0.039261 -0.169399
0.035284 -0.038333 -0.169291
0.036010 -0.037407 -0.169184
0.037069 -0.036599 -0.168947
0.037792 -0.035676 -0.168843
0.038514 -0.034755 -0.168740
0.039235 -0.033836 -0.168638
0.040285 -0.033037 -0.168407
0.041003 -0.032121 -0.168308
0.041720 -0.031207 -0.168210
0.042435 -0.030294 -0.168113
0.043476 -0.029503 -0.167887
0.044189 -0.028594 -0.167793
0.044900 -0.027686 -0.167699
0.045611 -0.026779 -0.167607
0.046643 -0.025997 -0.167387
0.047350 -0.025093 -0.167297
0.048057 -0.024191 -0.167209
0.048762 -0.023290 -0.167121
0.049786 -0.022516 -0.166907
0.050488 -0.021619 -0.166822
0.051190 -0.020722 -0.166738
0.051890 -0.019827 -0.166655
0.050488 -0.018084 -0.167419
0.047681 -0.015758 -0.168753
0.045014 -0.013472 -0.170034
0.042395 -0.011187 -0.171299
0.036643 -0.007583 -0.173837
0.042438 -0.029349 -0.175782
0.043797 -0.028678 -0.175413
0.044510 -0.027769 -0.175314
0.045221 -0.026862 -0.175216
0.046254 -0.026079 -0.174985
0.046963 -0.025175 -0.174889
0.047670 -0.024272 -0.174795
0.046619 -0.022686 -0.175437
0.038624 -0.020752 -0.070861
0.038954 -0.019644 -0.070851
0.039284 -0.018537 -0.070842
0.039613 -0.017432 -0.070833
0.040198 -0.016343 -0.070785
0.040526 -0.015241 -0.070778
0.040801 -0.014136 -0.070778
0.041071 -0.013033 -0.070780
0.041536 -0.011943 -0.070752
0.041804 -0.010842 -0.070755
0.042073 -0.009742 -0.070758
0.042342 -0.008642 -0.070762
0.042805 -0.007559 -0.070736
0.043072 -0.006462 -0.070740
0.043340 -0.005365 -0.070745
0.043607 -0.004270 -0.070751
0.044068 -0.003192 -0.070726
0.044335 -0.002099 -0.070732
0.044616 -0.001007 -0.070737
0.044902 0.000083 -0.070741
0.045399 0.001151 -0.070712
0.045684 0.002239 -0.070717
0.045969 0.003326 -0.070722
0.046253 0.004412 -0.070728
0.046748 0.005475 -0.070701
0.047032 0.006559 -0.070708
0.047315 0.007642 -0.070715
0.047809 0.008701 -0.070689
0.048092 0.009782 -0.070697
0.048374 0.010863 -0.070705
0.048656 0.011943 -0.070714
0.049147 0.012996 -0.070690
0.049429 0.014074 -0.070699
0.049710 0.015151 -0.070709
0.049991 0.016228 -0.070720
0.050480 0.017276 -0.070698
0.050761 0.018351 -0.070709
0.051041 0.019425 -0.070720
0.051321 0.020499 -0.070732
0.051808 0.021543 -0.070712
0.052087 0.022615 -0.070725
0.052366 0.023686 -0.070738
0.052645 0.024757 -0.070752
0.053129 0.025796 -0.070734
0.053408 0.026866 -0.070748
0.053686 0.027935 -0.070763
0.054168 0.028970 -0.070746
0.054446 0.030037 -0.070762
0.054723 0.031105 -0.070778
0.055000 0.032171 -0.070795
0.055480 0.033203 -0.070779
0.055757 0.034268 -0.070797
0.056033 0.035333 -0.070815
0.056309 0.036398 -0.070833
0.056787 0.037425 -0.070819
0.057062 0.038488 -0.070839
0.057338 0.039551 -0.070858
0.057814 0.040576 -0.070846
0.058089 0.041638 -0.070866
0.058363 0.042700 -0.070887
0.058637 0.043761 -0.070909
0.059112 0.044782 -0.070898
0.059653 0.045788 -0.070877
0.059926 0.046848 -0.070899
0.060199 0.047907 -0.070923
0.060671 0.048924 -0.070914
0.060944 0.049983 -0.070938
0.061216 0.051041 -0.070962
0.061686 0.052056 -0.070955
0.061958 0.053113 -0.070980
0.062229 0.054171 -0.071005
0.062500 0.055228 -0.071031
0.038779 -0.028816 -0.077402
0.039109 -0.027705 -0.077385
0.039438 -0.026594 -0.077369
0.040022 -0.025495 -0.077310
0.040350 -0.024388 -0.077295
0.040677 -0.023283 -0.077280
0.041005 -0.022178 -0.077266
0.041585 -0.021088 -0.077209
0.041912 -0.019987 -0.077196
0.042238 -0.018887 -0.077183
0.042563 -0.017789 -0.077171
0.043140 -0.016706 -0.077116
0.043465 -0.015611 -0.077105
0.043789 -0.014517 -0.077094
0.044113 -0.013424 -0.077084
0.044639 -0.012346 -0.077039
0.044904 -0.011252 -0.077040
0.045170 -0.010159 -0.077040
0.045435 -0.009067 -0.077042
0.045892 -0.007991 -0.077011
0.046157 -0.006901 -0.077013
0.046421 -0.005812 -0.077015
0.046686 -0.004723 -0.077018
0.047141 -0.003652 -0.076989
0.047404 -0.002566 -0.076993
0.047668 -0.001481 -0.076997
0.047931 -0.000396 -0.077002
0.048384 0.000669 -0.076975
0.048647 0.001752 -0.076981
0.048909 0.002834 -0.076987
0.049172 0.003915 -0.076994
0.049623 0.004976 -0.076968
0.050221 0.006018 -0.076918
0.050482 0.007096 -0.076926
0.050931 0.008152 -0.076902
0.051192 0.009228 -0.076911
0.051452 0.010304 -0.076921
0.051712 0.011379 -0.076931
0.052160 0.012430 -0.076909
0.052419 0.013503 -0.076920
0.052679 0.014576 -0.076931
0.052938 0.015648 -0.076943
0.053384 0.016695 -0.076923
0.053642 0.017766 -0.076935
0.053901 0.018836 -0.076948
0.054159 0.019906 -0.076962
0.054603 0.020948 -0.076944
0.054861 0.022017 -0.076958
0.055118 0.023084 -0.076973
0.055377 0.024152 -0.076988
0.055856 0.025185 -0.076966
0.056131 0.026248 -0.076979
0.056406 0.027310 -0.076992
0.056883 0.028340 -0.076971
0.057158 0.029401 -0.076986
0.057432 0.030462 -0.077001
0.057706 0.031522 -0.077016
0.058181 0.032548 -0.076997
0.058454 0.033607 -0.077013
0.058728 0.034666 -0.077030
0.059001 0.035724 -0.077047
0.059473 0.036746 -0.077030
0.059746 0.037803 -0.077048
0.060018 0.038860 -0.077067
0.060489 0.039878 -0.077051
0.060761 0.040934 -0.077070
0.061032 0.041990 -0.077090
0.061304 0.043045 -0.077111
0.061773 0.044060 -0.077097
0.062044 0.045114 -0.077118
0.062314 0.046168 -0.077140
0.062849 0.047167 -0.077116
0.063316 0.048179 -0.077104
0.063585 0.049231 -0.077127
0.063854 0.050284 -0.077151
0.064319 0.051293 -0.077141
0.064588 0.052344 -0.077165
0.064856 0.053395 -0.077191
0.065125 0.054447 -0.077216
0.065588 0.055453 -0.077208
0.065856 0.056504 -0.077234
0.066123 0.057554 -0.077261
-0.019278 -0.038655 -0.094542
0.038934 -0.037988 -0.083951
0.039263 -0.036871 -0.083926
0.039592 -0.035756 -0.083902
0.040174 -0.034646 -0.083832
0.040502 -0.033535 -0.083809
0.040829 -0.032424 -0.083786
0.041156 -0.031316 -0.083764
0.041735 -0.030215 -0.083696
0.042061 -0.029110 -0.083675
0.042386 -0.028006 -0.083655
0.042711 -0.026904 -0.083635
0.043287 -0.025812 -0.083569
0.043611 -0.024713 -0.083550
0.043935 -0.023615 -0.083532
0.044258 -0.022518 -0.083514
0.044830 -0.021435 -0.083450
0.045153 -0.020342 -0.083434
0.045475 -0.019250 -0.083417
0.045796 -0.018159 -0.083401
0.046366 -0.017084 -0.083340
0.046686 -0.015996 -0.083326
0.047006 -0.014910 -0.083311
0.047326 -0.013824 -0.083298
0.047892 -0.012757 -0.083239
0.048211 -0.011674 -0.083226
0.048530 -0.010593 -0.083214
0.048823 -0.009512 -0.083207
0.049274 -0.008443 -0.083171
0.049535 -0.007361 -0.083171
0.049796 -0.006280 -0.083171
0.050057 -0.005199 -0.083172
0.050506 -0.004136 -0.083138
0.050766 -0.003058 -0.083140
0.051026 -0.001981 -0.083142
0.051286 -0.000904 -0.083145
0.051733 0.000154 -0.083113
0.051992 0.001229 -0.083117
0.052251 0.002303 -0.083121
0.052510 0.003376 -0.083126
0.052955 0.004429 -0.083096
0.053214 0.005501 -0.083102
0.053472 0.006572 -0.083108
0.053916 0.007621 -0.083080
0.054173 0.008690 -0.083087
0.054431 0.009759 -0.083095
0.054688 0.010827 -0.083103
0.055130 0.011871 -0.083077
0.055386 0.012938 -0.083087
0.055971 0.013961 -0.083035
0.056227 0.015026 -0.083045
0.056666 0.016065 -0.083021
0.056922 0.017128 -0.083032
0.057177 0.018191 -0.083044
0.057432 0.019253 -0.083056
0.057870 0.020288 -0.083035
0.058124 0.021349 -0.083048
0.058378 0.022409 -0.083061
0.058633 0.023469 -0.083076
0.059069 0.024500 -0.083056
0.059322 0.025558 -0.083071
0.059576 0.026617 -0.083087
0.060010 0.027645 -0.083069
0.060263 0.028702 -0.083085
0.060516 0.029759 -0.083102
0.060769 0.030815 -0.083120
0.061202 0.031840 -0.083104
0.061454 0.032895 -0.083123
0.061706 0.033950 -0.083142
0.061958 0.035005 -0.083162
0.062389 0.036026 -0.083147
0.062640 0.037080 -0.083168
0.062891 0.038133 -0.083189
0.063321 0.039153 -0.083177
0.063572 0.040206 -0.083199
0.063822 0.041258 -0.083222
0.064073 0.042310 -0.083245
0.064501 0.043327 -0.083234
0.064751 0.044378 -0.083259
0.065001 0.045429 -0.083283
0.065250 0.046481 -0.083308
0.065992 0.047429 -0.083239
0.066241 0.048479 -0.083266
0.066489 0.049528 -0.083292
0.066919 0.050539 -0.083285
0.067185 0.051584 -0.083309
0.067451 0.052629 -0.083334
0.067716 0.053674 -0.083359
0.068174 0.054675 -0.083348
0.068439 0.055720 -0.083374
0.068704 0.056764 -0.083401
0.069161 0.057763 -0.083391
0.069425 0.058807 -0.083419
0.069689 0.059851 -0.083447
0.022799 -0.048468 -0.093740
0.024464 -0.047291 -0.093443
0.039415 -0.046026 -0.090528
0.039743 -0.044905 -0.090495
0.040070 -0.043785 -0.090463
0.040651 -0.042667 -0.090381
0.040978 -0.041552 -0.090350
0.041304 -0.040438 -0.090319
0.041630 -0.039325 -0.090289
0.042208 -0.038216 -0.090210
0.042532 -0.037107 -0.090181
0.042857 -0.036000 -0.090152
0.043432 -0.034898 -0.090075
0.043755 -0.033794 -0.090048
0.044078 -0.032692 -0.090021
0.044401 -0.031591 -0.089995
0.044972 -0.030498 -0.089921
0.045294 -0.029401 -0.089896
0.045615 -0.028304 -0.089871
0.045936 -0.027210 -0.089848
0.046504 -0.026125 -0.089775
0.046824 -0.025034 -0.089753
0.047144 -0.023944 -0.089731
0.047463 -0.022855 -0.089709
0.048028 -0.021779 -0.089639
0.048346 -0.020693 -0.089619
0.048664 -0.019608 -0.089599
0.048982 -0.018525 -0.089580
0.049544 -0.017457 -0.089513
0.049860 -0.016377 -0.089495
0.050176 -0.015298 -0.089477
0.050492 -0.014220 -0.089460
0.051051 -0.013160 -0.089395
0.051366 -0.012085 -0.089379
0.051680 -0.011011 -0.089364
0.051994 -0.009938 -0.089349
0.052550 -0.008885 -0.089287
0.052861 -0.007815 -0.089273
0.053119 -0.006742 -0.089271
0.053376 -0.005670 -0.089270
0.053819 -0.004614 -0.089232
0.054076 -0.003543 -0.089231
0.054333 -0.002474 -0.089232
0.054590 -0.001405 -0.089232
0.055031 -0.000354 -0.089196
0.055286 0.000713 -0.089198
0.055542 0.001779 -0.089200
0.055798 0.002845 -0.089203
0.056237 0.003890 -0.089170
0.056492 0.004954 -0.089173
0.056747 0.006017 -0.089178
0.057185 0.007059 -0.089146
0.057439 0.008120 -0.089151
0.057693 0.009181 -0.089157
0.057947 0.010242 -0.089164
0.058383 0.011279 -0.089134
0.058636 0.012338 -0.089142
0.058889 0.013396 -0.089150
0.059142 0.014453 -0.089159
0.059577 0.015486 -0.089131
0.060151 0.016499 -0.089076
0.060403 0.017554 -0.089086
0.060655 0.018608 -0.089097
0.061087 0.019637 -0.089072
0.061338 0.020690 -0.089084
0.061589 0.021742 -0.089096
0.061840 0.022794 -0.089109
0.062270 0.023819 -0.089086
0.062521 0.024870 -0.089100
0.062771 0.025920 -0.089115
0.063200 0.026942 -0.089093
0.063450 0.027991 -0.089109
0.063700 0.029041 -0.089125
0.063949 0.030089 -0.089142
0.064376 0.031107 -0.089123
0.064625 0.032155 -0.089141
0.064874 0.033203 -0.089159
0.065123 0.034250 -0.089178
0.065548 0.035265 -0.089161
0.065796 0.036311 -0.089181
0.066044 0.037357 -0.089202
0.066469 0.038370 -0.089186
0.066716 0.039415 -0.089208
0.066963 0.040460 -0.089230
0.067211 0.041505 -0.089253
0.067633 0.042514 -0.089240
0.067880 0.043558 -0.089263
0.068127 0.044602 -0.089288
0.068373 0.045646 -0.089313
0.069105 0.046589 -0.089237
0.069351 0.047631 -0.089263
0.069596 0.048674 -0.089290
0.070015 0.049678 -0.089280
0.070261 0.050720 -0.089308
0.070506 0.051762 -0.089336
0.070751 0.052804 -0.089365
0.071168 0.053806 -0.089358
0.071413 0.054848 -0.089388
0.071657 0.055889 -0.089418
0.069699 0.057446 -0.089911
0.068620 0.058806 -0.090220
0.067536 0.060175 -0.090532
0.038272 -0.050722 -0.097586
0.039758 -0.049577 -0.097301
0.041141 -0.048441 -0.097037
0.043345 -0.047303 -0.096600
0.043392 -0.046193 -0.096621
0.043438 -0.045083 -0.096642
0.043484 -0.043973 -0.096665
0.043897 -0.042863 -0.096610
0.044219 -0.041755 -0.096574
0.044541 -0.040649 -0.096539
0.044863 -0.039544 -0.096505
0.045433 -0.038443 -0.096419
0.045754 -0.037342 -0.096386
0.046074 -0.036242 -0.096354
0.046641 -0.035148 -0.096269
0.046961 -0.034052 -0.096238
0.047280 -0.032957 -0.096208
0.047598 -0.031863 -0.096178
0.048162 -0.030778 -0.096096
0.048480 -0.029688 -0.096068
0.048797 -0.028599 -0.096040
0.049114 -0.027512 -0.096012
0.049675 -0.026435 -0.095933
0.049991 -0.025351 -0.095907
0.050306 -0.024268 -0.095882
0.050621 -0.023187 -0.095857
0.051179 -0.022118 -0.095780
0.051493 -0.021040 -0.095757
0.051807 -0.019963 -0.095734
0.052121 -0.018887 -0.095711
0.052676 -0.017826 -0.095637
0.052988 -0.016753 -0.095616
0.053300 -0.015682 -0.095595
0.053612 -0.014611 -0.095575
0.054164 -0.013558 -0.095504
0.054475 -0.012490 -0.095485
0.054785 -0.011424 -0.095467
0.055096 -0.010358 -0.095449
0.055644 -0.009312 -0.095381
0.055954 -0.008249 -0.095364
0.056263 -0.007188 -0.095348
0.056572 -0.006127 -0.095333
0.057083 -0.005085 -0.095274
0.057336 -0.004023 -0.095272
0.057590 -0.002961 -0.095270
0.057843 -0.001899 -0.095269
0.058278 -0.000856 -0.095229
0.058531 0.000203 -0.095229
0.058783 0.001262 -0.095229
0.059036 0.002320 -0.095230
0.059469 0.003358 -0.095192
0.059721 0.004414 -0.095194
0.059972 0.005470 -0.095197
0.060404 0.006504 -0.095161
0.060655 0.007558 -0.095165
0.060906 0.008612 -0.095170
0.061157 0.009664 -0.095175
0.061587 0.010694 -0.095141
0.061837 0.011746 -0.095147
0.062087 0.012796 -0.095154
0.062337 0.013846 -0.095161
0.062765 0.014872 -0.095130
0.063015 0.015921 -0.095139
0.063581 0.016926 -0.095078
0.063830 0.017973 -0.095088
0.064256 0.018994 -0.095059
0.064504 0.020039 -0.095070
0.064752 0.021085 -0.095081
0.065000 0.022129 -0.095093
0.065424 0.023147 -0.095067
0.065672 0.024190 -0.095080
0.065919 0.025234 -0.095093
0.066342 0.026248 -0.095069
0.066589 0.027290 -0.095084
0.066835 0.028332 -0.095099
0.067082 0.029373 -0.095115
0.067503 0.030385 -0.095093
0.067749 0.031425 -0.095110
0.067995 0.032465 -0.095128
0.068240 0.033505 -0.095146
0.068660 0.034513 -0.095126
0.068905 0.035552 -0.095145
0.069150 0.036591 -0.095165
0.069569 0.037597 -0.095147
0.069813 0.038635 -0.095168
0.070058 0.039672 -0.095190
0.070302 0.040710 -0.095212
0.070719 0.041713 -0.095197
0.070963 0.042750 -0.095220
0.071206 0.043786 -0.095244
0.071757 0.044760 -0.095200
0.072172 0.045760 -0.095187
0.072414 0.046795 -0.095213
0.071538 0.048069 -0.095489
0.069325 0.049636 -0.096066
0.068245 0.050969 -0.096391
0.067159 0.052310 -0.096717
0.066068 0.053659 -0.097047
0.063794 0.055281 -0.097642
0.062685 0.056651 -0.097978
0.061569 0.058029 -0.098316
0.035890 -0.052092 -0.105097
0.037294 -0.050938 -0.104807
0.038691 -0.049792 -0.104518
0.040079 -0.048652 -0.104233
0.042760 -0.047506 -0.103653
0.044218 -0.046383 -0.103352
0.045575 -0.045267 -0.103075
0.046924 -0.044158 -0.102800
0.049528 -0.043055 -0.102239
0.050155 -0.041961 -0.102129
0.050201 -0.040868 -0.102152
0.050247 -0.039775 -0.102176
0.050268 -0.038682 -0.102206
0.050314 -0.037590 -0.102230
0.050360 -0.036497 -0.102256
0.050380 -0.035404 -0.102287
0.050426 -0.034312 -0.102314
0.050473 -0.033220 -0.102341
0.050749 -0.032133 -0.102316
0.051306 -0.031055 -0.102228
0.051620 -0.029973 -0.102196
0.051933 -0.028892 -0.102164
0.052246 -0.027812 -0.102133
0.052799 -0.026742 -0.102048
0.053111 -0.025665 -0.102018
0.053423 -0.024590 -0.101989
0.053734 -0.023516 -0.101961
0.054285 -0.022454 -0.101878
0.054595 -0.021383 -0.101851
0.054905 -0.020314 -0.101825
0.055215 -0.019245 -0.101799
0.055762 -0.018191 -0.101719
0.056071 -0.017125 -0.101695
0.056380 -0.016061 -0.101671
0.056688 -0.014998 -0.101648
0.057232 -0.013951 -0.101571
0.057539 -0.012891 -0.101549
0.057846 -0.011832 -0.101527
0.058153 -0.010774 -0.101507
0.058694 -0.009734 -0.101432
0.059000 -0.008679 -0.101413
0.059305 -0.007624 -0.101394
0.059610 -0.006571 -0.101376
0.060148 -0.005538 -0.101305
0.060452 -0.004488 -0.101288
0.060756 -0.003438 -0.101272
0.061047 -0.002388 -0.101259
0.061476 -0.001352 -0.101215
0.061726 -0.000300 -0.101213
0.061975 0.000751 -0.101211
0.062225 0.001801 -0.101210
0.062652 0.002832 -0.101169
0.062901 0.003881 -0.101169
0.063149 0.004929 -0.101170
0.063575 0.005957 -0.101131
0.063823 0.007003 -0.101133
0.064071 0.008049 -0.101136
0.064319 0.009094 -0.101139
0.064743 0.010117 -0.101102
0.064990 0.011161 -0.101107
0.065237 0.012204 -0.101112
0.065797 0.013207 -0.101045
0.066220 0.014225 -0.101010
0.066466 0.015265 -0.101017
0.066711 0.016305 -0.101025
0.066957 0.017345 -0.101034
0.067377 0.018359 -0.101002
0.067623 0.019398 -0.101011
0.067867 0.020435 -0.101021
0.068112 0.021473 -0.101032
0.068531 0.022483 -0.101003
0.068775 0.023520 -0.101015
0.069020 0.024556 -0.101027
0.069437 0.025564 -0.101000
0.069681 0.026598 -0.101014
0.069924 0.027633 -0.101028
0.070168 0.028667 -0.101043
0.070584 0.029671 -0.101018
0.070826 0.030705 -0.101035
0.071069 0.031737 -0.101052
0.071312 0.032770 -0.101069
0.071726 0.033772 -0.101047
0.071968 0.034803 -0.101065
0.072210 0.035835 -0.101085
0.072623 0.036834 -0.101064
0.072865 0.037865 -0.101085
0.073106 0.038895 -0.101106
0.072175 0.040154 -0.101407
0.068952 0.041871 -0.102254
0.067871 0.043177 -0.102593
0.066785 0.044491 -0.102935
0.065692 0.045812 -0.103279
0.063417 0.047386 -0.103906
0.062306 0.048728 -0.104257
0.061190 0.050078 -0.104610
0.058865 0.051695 -0.105254
0.057730 0.053066 -0.105614
0.056589 0.054445 -0.105977
0.055441 0.055833 -0.106343
0.053052 0.057508 -0.107008
0.051886 0.058917 -0.107381
0.034900 -0.052314 -0.112418
0.036311 -0.051157 -0.112105
0.037713 -0.050008 -0.111794
0.039107 -0.048865 -0.111485
0.041799 -0.047715 -0.110862
0.043170 -0.046590 -0.110560
0.044532 -0.045471 -0.110260
0.045888 -0.044359 -0.109963
0.048503 -0.043252 -0.109360
0.049927 -0.042156 -0.109046
0.051251 -0.041067 -0.108758
0.052568 -0.039985 -0.108472
0.055110 -0.038919 -0.107888
0.056405 -0.037852 -0.107607
0.056772 -0.036778 -0.107554
0.056793 -0.035701 -0.107585
0.056839 -0.034625 -0.107611
0.056885 -0.033548 -0.107637
0.056930 -0.032472 -0.107665
0.056951 -0.031395 -0.107698
0.056997 -0.030319 -0.107727
0.057043 -0.029242 -0.107756
0.057089 -0.028166 -0.107785
0.057109 -0.027089 -0.107822
0.057155 -0.026013 -0.107853
0.057201 -0.024937 -0.107884
0.057247 -0.023861 -0.107917
0.057346 -0.022787 -0.107937
0.057652 -0.021723 -0.107906
0.057959 -0.020661 -0.107877
0.058264 -0.019599 -0.107848
0.058805 -0.018552 -0.107762
0.059110 -0.017494 -0.107734
0.059415 -0.016437 -0.107707
0.059719 -0.015381 -0.107681
0.060256 -0.014341 -0.107598
0.060560 -0.013287 -0.107573
0.060863 -0.012235 -0.107549
0.061166 -0.011184 -0.107526
0.061700 -0.010152 -0.107446
0.062002 -0.009103 -0.107424
0.062304 -0.008056 -0.107402
0.062605 -0.007009 -0.107381
0.063137 -0.005984 -0.107304
0.063437 -0.004940 -0.107285
0.063737 -0.003897 -0.107266
0.064037 -0.002855 -0.107248
0.064566 -0.001836 -0.107174
0.064865 -0.000796 -0.107157
0.065120 0.000246 -0.107152
0.065366 0.001289 -0.107149
0.065788 0.002313 -0.107104
0.066033 0.003355 -0.107102
0.066279 0.004395 -0.107102
0.066699 0.005416 -0.107058
0.066944 0.006455 -0.107059
0.067189 0.007494 -0.107060
0.067744 0.008495 -0.106985
0.068162 0.009510 -0.106945
0.068406 0.010546 -0.106948
0.068649 0.011581 -0.106952
0.068893 0.012616 -0.106957
0.069310 0.013627 -0.106919
0.069552 0.014660 -0.106925
0.069795 0.015693 -0.106931
0.070038 0.016725 -0.106938
0.070453 0.017733 -0.106903
0.070695 0.018764 -0.106912
0.070937 0.019795 -0.106921
0.071179 0.020825 -0.106931
0.071592 0.021829 -0.106898
0.071833 0.022858 -0.106909
0.072074 0.023886 -0.106921
0.072487 0.024888 -0.106890
0.072727 0.025915 -0.106903
0.072968 0.026942 -0.106917
0.073208 0.027969 -0.106931
0.073619 0.028967 -0.106903
0.073859 0.029993 -0.106919
0.072866 0.031234 -0.107246
0.071806 0.032492 -0.107591
0.069600 0.033962 -0.108226
0.068523 0.035238 -0.108578
0.067441 0.036522 -0.108932
0.064147 0.038226 -0.109847
0.063042 0.039533 -0.110209
0.061930 0.040848 -0.110575
0.060812 0.042171 -0.110943
0.058486 0.043738 -0.111619
0.057350 0.045081 -0.111994
0.056207 0.046433 -0.112372
0.055059 0.047792 -0.112753
0.052668 0.049416 -0.113452
0.051500 0.050797 -0.113840
0.050325 0.052186 -0.114232
0.047881 0.053855 -0.114949
0.046691 0.055265 -0.115347
0.045509 0.056681 -0.115744
0.044355 0.058098 -0.116136
0.031614 -0.053726 -0.120385
0.034393 -0.052528 -0.119696
0.035807 -0.051369 -0.119359
0.037213 -0.050218 -0.119025
0.038611 -0.049073 -0.118694
0.041310 -0.047921 -0.118028
0.042684 -0.046794 -0.117703
0.044051 -0.045673 -0.117382
0.045410 -0.044559 -0.117063
0.048032 -0.043450 -0.116417
0.049368 -0.042353 -0.116105
0.050696 -0.041262 -0.115795
0.052017 -0.040177 -0.115488
0.054566 -0.039109 -0.114863
0.055866 -0.038040 -0.114562
0.057158 -0.036977 -0.114264
0.059651 -0.035939 -0.113654
0.060922 -0.034892 -0.113362
0.062186 -0.033850 -0.113072
0.062816 -0.032800 -0.112947
0.062838 -0.031737 -0.112980
0.062883 -0.030675 -0.113008
0.062928 -0.029614 -0.113036
0.062974 -0.028552 -0.113066
0.062995 -0.027489 -0.113102
0.063041 -0.026427 -0.113132
0.063086 -0.025366 -0.113163
0.063132 -0.024304 -0.113195
0.063153 -0.023241 -0.113234
0.063198 -0.022179 -0.113267
0.063244 -0.021117 -0.113301
0.063290 -0.020055 -0.113336
0.063311 -0.018992 -0.113377
0.063357 -0.017930 -0.113413
0.063402 -0.016867 -0.113450
0.063448 -0.015805 -0.113487
0.063469 -0.014741 -0.113531
0.063515 -0.013678 -0.113570
0.063813 -0.012633 -0.113543
0.064112 -0.011589 -0.113517
0.064640 -0.010563 -0.113431
0.064939 -0.009521 -0.113406
0.065237 -0.008481 -0.113382
0.065535 -0.007441 -0.113358
0.066060 -0.006422 -0.113276
0.066357 -0.005385 -0.113254
0.066654 -0.004349 -0.113232
0.066950 -0.003314 -0.113212
0.067472 -0.002301 -0.113132
0.067768 -0.001268 -0.113113
0.068063 -0.000237 -0.113095
0.068358 0.000794 -0.113077
0.068838 0.001805 -0.113011
0.069081 0.002839 -0.113008
0.069324 0.003872 -0.113006
0.069739 0.004886 -0.112959
0.069981 0.005918 -0.112958
0.070223 0.006949 -0.112958
0.070464 0.007980 -0.112958
0.070878 0.008989 -0.112914
0.071119 0.010019 -0.112916
0.071360 0.011048 -0.112918
0.071601 0.012076 -0.112922
0.072013 0.013081 -0.112880
0.072254 0.014108 -0.112885
0.072494 0.015134 -0.112890
0.072734 0.016160 -0.112896
0.073144 0.017162 -0.112858
0.073384 0.018187 -0.112865
0.073623 0.019211 -0.112873
0.073863 0.020235 -0.112882
0.074271 0.021233 -0.112846
0.074510 0.022256 -0.112856
0.074749 0.023278 -0.112867
0.071580 0.024840 -0.113787
0.070514 0.026081 -0.114148
0.069443 0.027328 -0.114511
0.068365 0.028583 -0.114878
0.066122 0.030040 -0.115557
0.065027 0.031314 -0.115930
0.063926 0.032594 -0.116306
0.062820 0.033883 -0.116685
0.060516 0.035392 -0.117386
0.059391 0.036699 -0.117772
0.058259 0.038015 -0.118161
0.055911 0.039564 -0.118879
0.054779 0.040896 -0.119271
0.053641 0.042237 -0.119666
0.052497 0.043585 -0.120064
0.050115 0.045183 -0.120797
0.048952 0.046553 -0.121202
0.047782 0.047930 -0.121611
0.046606 0.049316 -0.122023
0.044223 0.050958 -0.122763
0.042021 0.052576 -0.123455
0.040869 0.053984 -0.123865
0.027622 -0.056326 -0.128675
0.029076 -0.055139 -0.128304
0.030522 -0.053959 -0.127936
0.033412 -0.052754 -0.127173
0.034832 -0.051593 -0.126813
0.036244 -0.050438 -0.126455
0.037647 -0.049290 -0.126101
0.040357 -0.048134 -0.125389
0.041737 -0.047004 -0.125042
0.043109 -0.045881 -0.124697
0.044473 -0.044764 -0.124356
0.047106 -0.043651 -0.123667
0.048448 -0.042551 -0.123333
0.049781 -0.041457 -0.123001
0.051108 -0.040370 -0.122672
0.053667 -0.039299 -0.122005
0.054971 -0.038227 -0.121682
0.056268 -0.037162 -0.121363
0.058771 -0.036120 -0.120712
0.060047 -0.035070 -0.120399
0.061316 -0.034026 -0.120089
0.062578 -0.032987 -0.119781
0.065012 -0.031984 -0.119151
0.065660 -0.030944 -0.119013
0.066064 -0.029899 -0.118942
0.066468 -0.028857 -0.118872
0.067205 -0.027828 -0.118711
0.067607 -0.026789 -0.118643
0.068008 -0.025753 -0.118576
0.068409 -0.024718 -0.118509
0.069140 -0.023699 -0.118352
0.069280 -0.022657 -0.118359
0.069325 -0.021610 -0.118392
0.069371 -0.020563 -0.118426
0.069392 -0.019514 -0.118468
0.069438 -0.018467 -0.118504
0.069483 -0.017420 -0.118540
0.069528 -0.016372 -0.118577
0.069550 -0.015323 -0.118621
0.069595 -0.014275 -0.118660
0.069641 -0.013228 -0.118699
0.069686 -0.012180 -0.118739
0.069708 -0.011130 -0.118786
0.069753 -0.010081 -0.118827
0.069799 -0.009033 -0.118869
0.069844 -0.007984 -0.118912
0.069866 -0.006933 -0.118962
0.069911 -0.005884 -0.119006
0.069957 -0.004834 -0.119051
0.070002 -0.003784 -0.119097
0.070378 -0.002765 -0.119051
0.070670 -0.001739 -0.119029
0.070962 -0.000714 -0.119009
0.071254 0.000310 -0.118988
0.071767 0.001310 -0.118907
0.072057 0.002332 -0.118888
0.072348 0.003353 -0.118871
0.072790 0.004356 -0.118811
0.073029 0.005381 -0.118809
0.073268 0.006405 -0.118807
0.073506 0.007429 -0.118806
0.073915 0.008431 -0.118759
0.074153 0.009453 -0.118759
0.074391 0.010475 -0.118761
0.074629 0.011496 -0.118763
0.075036 0.012495 -0.118718
0.075273 0.013514 -0.118721
0.075454 0.014541 -0.118741
0.074410 0.015737 -0.119106
0.071230 0.017240 -0.120073
0.070163 0.018456 -0.120447
0.069091 0.019679 -0.120824
0.068013 0.020910 -0.121203
0.065789 0.022319 -0.121907
0.064711 0.023564 -0.122289
0.063627 0.024817 -0.122674
0.061370 0.026262 -0.123391
0.060268 0.027533 -0.123783
0.059160 0.028811 -0.124178
0.058047 0.030097 -0.124577
0.055729 0.031592 -0.125317
0.054597 0.032897 -0.125723
0.053459 0.034210 -0.126132
0.052315 0.035531 -0.126544
0.049934 0.037079 -0.127309
0.048770 0.038420 -0.127729
0.047600 0.039769 -0.128153
0.045199 0.041353 -0.128928
0.044065 0.042713 -0.129344
0.042925 0.044080 -0.129764
0.040712 0.045661 -0.130490
0.038314 0.047292 -0.131271
0.037144 0.048692 -0.131704
0.035967 0.050100 -0.132139
0.034784 0.051517 -0.132578
0.025142 -0.057764 -0.136741
0.026611 -0.056566 -0.136341
0.028071 -0.055375 -0.135945
0.029523 -0.054191 -0.135552
0.032326 -0.052985 -0.134769
0.033752 -0.051820 -0.134384
0.035171 -0.050662 -0.134003
0.036581 -0.049511 -0.133624
0.039303 -0.048351 -0.132866
0.040689 -0.047218 -0.132496
0.042067 -0.046091 -0.132128
0.043437 -0.044971 -0.131763
0.046082 -0.043855 -0.131030
0.047430 -0.042752 -0.130673
0.048769 -0.041655 -0.130319
0.050101 -0.040565 -0.129967
0.052762 -0.039490 -0.129231
0.054072 -0.038416 -0.128887
0.055374 -0.037348 -0.128546
0.056220 -0.036280 -0.128338
0.056640 -0.035208 -0.128254
0.057060 -0.034138 -0.128171
0.057479 -0.033071 -0.128089
0.058245 -0.032013 -0.127907
0.058663 -0.030950 -0.127827
0.059079 -0.029889 -0.127747
0.059495 -0.028829 -0.127669
0.060255 -0.027783 -0.127491
0.060669 -0.026728 -0.127414
0.061082 -0.025675 -0.127339
0.061495 -0.024624 -0.127264
0.062249 -0.023589 -0.127091
0.062660 -0.022542 -0.127018
0.063070 -0.021497 -0.126946
0.063479 -0.020453 -0.126874
0.064227 -0.019429 -0.126705
0.064635 -0.018390 -0.126636
0.065042 -0.017352 -0.126567
0.065448 -0.016316 -0.126500
0.066190 -0.015302 -0.126335
0.066595 -0.014270 -0.126269
0.066999 -0.013239 -0.126204
0.067402 -0.012210 -0.126140
0.068138 -0.011207 -0.125979
0.068540 -0.010182 -0.125917
0.068941 -0.009158 -0.125856
0.069341 -0.008136 -0.125795
0.070071 -0.007143 -0.125639
0.070470 -0.006124 -0.125580
0.070868 -0.005107 -0.125522
0.071265 -0.004091 -0.125465
