0.022773 0.002600 -0.112595
0.022759 0.003539 -0.112648
0.022745 0.004478 -0.112701
0.023618 0.005327 -0.112544
0.024433 0.006180 -0.112401
0.024858 0.007071 -0.112351
0.025060 0.007984 -0.112354
0.025046 0.008921 -0.112409
0.024034 0.009969 -0.112702
0.022495 0.011081 -0.113120
0.022481 0.012025 -0.113177
0.022467 0.012968 -0.113234
0.022377 0.013921 -0.113310
0.022362 0.014866 -0.113368
0.022348 0.015811 -0.113427
0.022334 0.016757 -0.113485
0.022246 0.017713 -0.113563
0.016369 -0.020636 -0.119905
0.016353 -0.019692 -0.119948
0.016337 -0.018748 -0.119992
0.016243 -0.017800 -0.120056
0.016228 -0.016855 -0.120100
0.016213 -0.015910 -0.120145
0.016198 -0.014965 -0.120191
0.028550 -0.014756 -0.117153
0.028926 -0.013859 -0.117101
0.029061 -0.012947 -0.117109
0.029025 -0.012025 -0.117161
0.027919 -0.011030 -0.117480
0.015950 -0.009277 -0.120514
0.015934 -0.008329 -0.120563
0.015919 -0.007381 -0.120612
0.015903 -0.006433 -0.120662
0.015226 -0.005433 -0.120878
0.013948 -0.004382 -0.121245
0.013533 -0.003397 -0.121397
0.013426 -0.002435 -0.121472
0.013807 -0.001514 -0.121425
0.014445 -0.000616 -0.121314
0.015639 0.000230 -0.121064
0.015623 0.001182 -0.121118
0.015528 0.002141 -0.121192
0.015513 0.003094 -0.121247
0.015497 0.004047 -0.121302
0.015482 0.005001 -0.121358
0.015389 0.005963 -0.121434
0.028524 0.005564 -0.118183
0.029298 0.006410 -0.118040
0.029712 0.007293 -0.117988
0.029914 0.008196 -0.117990
0.029594 0.009158 -0.118123
0.028964 0.010156 -0.118336
0.015202 0.012664 -0.121861
0.015187 0.013622 -0.121921
0.032848 -0.015204 -0.122790
0.033429 -0.014327 -0.122679
0.033741 -0.013436 -0.122639
0.033822 -0.012530 -0.122661
0.033305 -0.011585 -0.122841
0.032255 -0.010600 -0.123162
0.033314 0.005797 -0.123758
0.034057 0.006636 -0.123614
0.034465 0.007509 -0.123559
0.034611 0.008410 -0.123574
0.034933 0.009290 -0.123543
0.034406 0.010267 -0.123738
-0.025072 -0.001780 -0.057490
-0.023451 -0.000407 -0.057315
-0.022749 0.000773 -0.057244
-0.023006 0.001759 -0.057279
-0.023502 0.002697 -0.057342
-0.024287 0.003580 -0.057437
-0.027017 0.004089 -0.057750
-0.031233 0.004323 -0.058230
-0.036354 0.004402 -0.058812
-0.039343 0.004901 -0.059155
-0.046608 0.004619 -0.059978
-0.013358 -0.001614 -0.063180
-0.013374 -0.000596 -0.063185
-0.013438 0.000410 -0.063196
-0.013502 0.001417 -0.063208
-0.013500 0.002436 -0.063211
-0.013841 0.003385 -0.063258
-0.017762 0.003627 -0.063757
-0.019104 0.004389 -0.063930
-0.052317 -0.001027 -0.068119
-0.050767 0.000365 -0.067929
-0.050371 0.001529 -0.067885
-0.050459 0.002601 -0.067902
-0.051435 0.003507 -0.068031
-0.052537 0.004392 -0.068176
-0.054156 0.005188 -0.068387
-0.056936 0.005781 -0.068744
-0.008494 -0.005862 -0.069538
-0.007422 -0.004612 -0.069387
-0.007010 -0.003510 -0.069329
-0.006896 -0.002475 -0.069312
-0.006939 -0.001475 -0.069318
-0.006851 -0.000448 -0.069306
-0.006916 0.000546 -0.069315
-0.006981 0.001540 -0.069325
-0.007046 0.002533 -0.069335
-0.007054 0.003537 -0.069337
-0.007374 0.004478 -0.069383
-0.007866 0.005385 -0.069453
-0.008568 0.006252 -0.069554
-0.010902 0.006804 -0.069882
-0.016202 0.006794 -0.070627
-0.062227 0.000167 -0.077077
-0.060625 0.001577 -0.076856
-0.060742 0.002663 -0.076876
-0.061222 0.003682 -0.076948
-0.061992 0.004650 -0.077060
-0.063149 0.005552 -0.077227
-0.002679 -0.006789 -0.075661
-0.002745 -0.005798 -0.075666
-0.002659 -0.004775 -0.075649
-0.002725 -0.003786 -0.075655
-0.002791 -0.002797 -0.075662
-0.001286 -0.001471 -0.075426
-0.001352 -0.000487 -0.075433
-0.001269 0.000528 -0.075418
-0.001335 0.001510 -0.075425
-0.000724 0.002633 -0.075329
-0.000790 0.003613 -0.075337
-0.000709 0.004622 -0.075323
-0.001064 0.005543 -0.075376
-0.003855 0.005981 -0.075805
-0.003920 0.006965 -0.075815
-0.004219 0.007903 -0.075860
-0.008321 0.008108 -0.076492
-0.070521 0.000635 -0.086079
-0.069983 0.001860 -0.085998
-0.069947 0.002991 -0.085994
-0.070249 0.004061 -0.086042
-0.071576 0.004951 -0.086249
-0.073036 0.005822 -0.086477
-0.076393 0.006370 -0.086997
0.005257 -0.012148 -0.081348
0.005355 -0.011129 -0.081322
0.005286 -0.010151 -0.081324
0.005218 -0.009174 -0.081327
0.005149 -0.008197 -0.081330
0.005226 -0.007188 -0.081308
0.005157 -0.006212 -0.081312
0.005089 -0.005238 -0.081316
0.005021 -0.004263 -0.081320
0.005097 -0.003258 -0.081300
0.005029 -0.002285 -0.081304
0.004960 -0.001313 -0.081309
0.004892 -0.000341 -0.081315
0.004824 0.000630 -0.081320
0.004900 0.001631 -0.081302
0.004832 0.002601 -0.081308
0.004764 0.003570 -0.081315
0.004696 0.004539 -0.081322
0.004772 0.005537 -0.081304
0.004704 0.006504 -0.081312
0.004636 0.007471 -0.081320
0.004568 0.008438 -0.081328
0.004643 0.009432 -0.081312
0.004575 0.010397 -0.081321
0.004506 0.011361 -0.081330
0.004438 0.012326 -0.081339
-0.078526 0.001212 -0.095290
-0.077922 0.002461 -0.095187
-0.077886 0.003607 -0.095181
-0.078481 0.004642 -0.095281
-0.079429 0.005617 -0.095441
-0.080886 0.006508 -0.095687
0.018503 -0.014016 -0.085897
0.020268 -0.012604 -0.085559
0.021061 -0.011440 -0.085401
0.021421 -0.010387 -0.085321
0.021864 -0.009315 -0.085227
0.022178 -0.008278 -0.085157
0.022966 -0.007129 -0.085001
0.023166 -0.006123 -0.084952
0.023257 -0.005146 -0.084924
0.023347 -0.004169 -0.084896
0.023731 -0.003126 -0.084815
0.023731 -0.002173 -0.084804
0.023665 -0.001235 -0.084806
0.023599 -0.000299 -0.084808
0.023666 0.000667 -0.084786
0.023459 0.001571 -0.084815
0.023253 0.002476 -0.084843
0.023047 0.003380 -0.084872
0.022841 0.004285 -0.084901
0.022545 0.005170 -0.084947
0.022194 0.006045 -0.085004
0.021842 0.006920 -0.085061
0.021491 0.007796 -0.085118
0.020877 0.008619 -0.085223
0.020506 0.009492 -0.085284
0.019980 0.010336 -0.085374
0.019374 0.011165 -0.085479
0.018365 0.011917 -0.085658
0.017781 0.012755 -0.085759
0.001705 0.010627 -0.088687
0.001166 0.011508 -0.088781
0.000909 0.012443 -0.088823
-0.085227 0.002074 -0.104517
-0.085156 0.003241 -0.104501
-0.085449 0.004342 -0.104552
-0.086057 0.005391 -0.104661
-0.088314 0.006162 -0.105071
0.018831 -0.018031 -0.092668
0.022604 -0.016082 -0.091904
0.023496 -0.014887 -0.091709
0.024283 -0.013723 -0.091536
0.025067 -0.012564 -0.091363
0.026505 -0.011246 -0.091062
0.026871 -0.010200 -0.090973
0.027121 -0.009185 -0.090908
0.027456 -0.008151 -0.090826
0.027774 -0.007124 -0.090747
0.028391 -0.006027 -0.090610
0.028477 -0.005060 -0.090578
0.028563 -0.004094 -0.090547
0.028639 -0.003131 -0.090518
0.027011 -0.002563 -0.090825
0.026944 -0.001632 -0.090825
0.026877 -0.000701 -0.090825
0.026810 0.000229 -0.090825
0.028514 0.001552 -0.090477
0.028314 0.002448 -0.090505
0.028110 0.003343 -0.090533
0.027906 0.004238 -0.090562
0.027660 0.005125 -0.090599
0.027171 0.005959 -0.090685
0.026760 0.006812 -0.090756
0.026412 0.007678 -0.090814
0.026089 0.008551 -0.090868
0.025471 0.009363 -0.090981
0.024990 0.010205 -0.091066
0.024395 0.011026 -0.091175
0.023799 0.011848 -0.091284
0.022807 0.012594 -0.091471
0.022207 0.013419 -0.091582
0.021604 0.014246 -0.091693
0.020766 0.015030 -0.091851
0.019283 0.015695 -0.092136
0.018422 0.016481 -0.092300
0.017432 0.017247 -0.092488
0.016439 0.018015 -0.092678
-0.094786 0.001313 -0.114532
-0.094005 0.002621 -0.114373
-0.093838 0.003820 -0.114336
-0.094389 0.004895 -0.114440
-0.095340 0.005905 -0.114623
-0.096807 0.006832 -0.114908
0.023292 -0.019007 -0.098575
0.025063 -0.017573 -0.098176
0.026862 -0.016141 -0.097772
0.029206 -0.014576 -0.097253
0.029976 -0.013425 -0.097069
0.030722 -0.012285 -0.096889
0.031174 -0.011222 -0.096773
0.032214 -0.010016 -0.096533
0.032455 -0.009012 -0.096462
0.032696 -0.008011 -0.096391
0.032936 -0.007011 -0.096322
0.033221 -0.006003 -0.096243
0.033573 -0.004981 -0.096150
0.033644 -0.004027 -0.096118
0.033715 -0.003075 -0.096085
0.032052 -0.002529 -0.096420
0.031961 -0.001612 -0.096423
0.031893 -0.000692 -0.096421
0.031826 0.000229 -0.096419
0.033446 0.001528 -0.096061
0.033260 0.002418 -0.096086
0.033067 0.003306 -0.096112
0.032866 0.004192 -0.096140
0.032510 0.005044 -0.096201
0.032183 0.005904 -0.096257
0.031747 0.006740 -0.096336
0.031428 0.007603 -0.096390
0.031021 0.008448 -0.096464
0.030578 0.009286 -0.096545
0.029892 0.010075 -0.096679
0.029312 0.010888 -0.096790
0.028726 0.011702 -0.096902
0.028137 0.012516 -0.097016
0.027156 0.013256 -0.097213
0.026393 0.014040 -0.097364
0.025567 0.014816 -0.097529
0.024618 0.015570 -0.097720
0.023202 0.016240 -0.098010
0.022334 0.017016 -0.098185
0.021349 0.017774 -0.098384
0.018253 0.018151 -0.099030
0.014686 0.018455 -0.099775
0.013588 0.019212 -0.099999
-0.103888 0.001851 -0.124755
-0.102397 0.003294 -0.124434
-0.102585 0.004448 -0.124467
-0.103116 0.005544 -0.124573
-0.104028 0.006580 -0.124760
-0.108363 0.007064 -0.125669
0.030032 -0.018377 -0.103861
0.031541 -0.017022 -0.103492
0.031489 -0.016083 -0.103478
0.031437 -0.015146 -0.103465
0.031537 -0.014170 -0.103417
0.031486 -0.013234 -0.103404
0.031435 -0.012299 -0.103391
0.031383 -0.011365 -0.103379
0.031483 -0.010393 -0.103334
0.031432 -0.009460 -0.103322
0.031380 -0.008528 -0.103311
0.031329 -0.007597 -0.103301
0.031278 -0.006666 -0.103291
0.031378 -0.005700 -0.103247
0.031327 -0.004771 -0.103238
0.031276 -0.003843 -0.103229
0.031225 -0.002915 -0.103221
0.031324 -0.001953 -0.103179
0.031273 -0.001027 -0.103171
0.031222 -0.000101 -0.103164
0.031171 0.000824 -0.103157
0.031270 0.001782 -0.103117
0.031219 0.002705 -0.103111
0.031168 0.003628 -0.103105
0.031117 0.004550 -0.103100
0.031066 0.005472 -0.103095
0.031165 0.006425 -0.103057
0.031114 0.007345 -0.103053
0.031063 0.008265 -0.103049
0.031012 0.009184 -0.103046
0.031112 0.010134 -0.103009
0.031061 0.011052 -0.103007
0.031011 0.011969 -0.103005
0.030961 0.012886 -0.103003
0.031059 0.013832 -0.102968
0.030429 0.014634 -0.103098
0.029665 0.015413 -0.103259
0.028855 0.016185 -0.103430
0.027131 0.016788 -0.103807
0.026108 0.017528 -0.104027
0.022653 0.017821 -0.104795
0.019148 0.018120 -0.105575
0.018519 0.018951 -0.105707
0.018583 0.019908 -0.105684
0.015723 0.020347 -0.106319
0.024398 -0.021051 -0.111988
0.024504 -0.020053 -0.111932
0.024454 -0.019099 -0.111914
0.024404 -0.018145 -0.111897
0.024354 -0.017192 -0.111880
0.024460 -0.016200 -0.111825
0.024409 -0.015249 -0.111809
0.024358 -0.014299 -0.111794
0.024308 -0.013349 -0.111779
0.025253 -0.012151 -0.111524
0.025248 -0.011194 -0.111498
0.025003 -0.010296 -0.111531
0.024556 -0.009448 -0.111614
0.024217 -0.008573 -0.111670
0.024323 -0.007591 -0.111620
0.024273 -0.006647 -0.111608
0.024224 -0.005703 -0.111596
0.024174 -0.004760 -0.111585
0.024280 -0.003782 -0.111536
0.024230 -0.002841 -0.111526
0.024180 -0.001900 -0.111516
0.024131 -0.000961 -0.111506
0.024236 0.000013 -0.111460
0.024187 0.000952 -0.111451
0.024137 0.001890 -0.111443
0.024088 0.002827 -0.111435
0.024039 0.003763 -0.111428
0.024144 0.004732 -0.111383
0.024095 0.005668 -0.111377
0.024045 0.006602 -0.111371
0.023996 0.007536 -0.111365
0.024264 0.008535 -0.111283
0.024323 0.009489 -0.111253
0.024197 0.010405 -0.111267
0.023954 0.011298 -0.111309
0.024059 0.012259 -0.111268
0.024010 0.013189 -0.111265
0.023961 0.014119 -0.111263
0.023912 0.015048 -0.111260
0.024016 0.016006 -0.111222
0.023967 0.016934 -0.111220
0.023554 0.017794 -0.111306
0.023483 0.018718 -0.111311
0.023412 0.019641 -0.111316
0.020262 0.020013 -0.112060
0.017153 -0.018297 -0.120546
0.017104 -0.017330 -0.120526
0.029429 -0.013205 -0.117338
0.029929 -0.012126 -0.117179
0.030071 -0.011141 -0.117113
0.029729 -0.010277 -0.117171
0.029166 -0.009468 -0.117286
0.028281 -0.008736 -0.117485
0.016929 -0.010543 -0.120360
0.017042 -0.009543 -0.120303
0.016994 -0.008583 -0.120287
0.016946 -0.007624 -0.120272
0.016899 -0.006666 -0.120258
0.017011 -0.005671 -0.120203
0.016963 -0.004714 -0.120189
0.016916 -0.003758 -0.120176
0.016140 -0.002967 -0.120349
0.014207 -0.002434 -0.120818
0.013741 -0.001567 -0.120913
0.013492 -0.000652 -0.120953
0.013448 0.000309 -0.120941
0.013696 0.001331 -0.120855
0.016901 0.002985 -0.120016
0.016854 0.003936 -0.120006
0.027471 0.007124 -0.117279
0.028722 0.008322 -0.116940
0.029177 0.009350 -0.116804
0.028990 0.010244 -0.116833
0.028607 0.011099 -0.116912
0.027957 0.011901 -0.117059
0.016840 0.010636 -0.119873
0.016792 0.011581 -0.119867
0.016744 0.012526 -0.119862
0.016697 0.013470 -0.119857
0.016807 0.014444 -0.119813
0.016760 0.015387 -0.119809
0.016712 0.016330 -0.119806
0.016665 0.017271 -0.119803
0.016617 0.018213 -0.119801
0.033744 -0.014190 -0.123051
0.034644 -0.013013 -0.122772
0.034845 -0.012020 -0.122684
0.034787 -0.011094 -0.122667
0.034316 -0.010272 -0.122762
0.033653 -0.009498 -0.122909
0.032465 -0.008851 -0.123199
0.032962 0.007155 -0.122598
0.033633 0.008224 -0.122394
0.033813 0.009186 -0.122323
0.033685 0.010084 -0.122336
0.033254 0.010919 -0.122431
0.032546 0.011699 -0.122600
0.031180 0.012350 -0.122948
-0.024805 0.003475 -0.056929
-0.024701 0.004665 -0.056888
-0.025020 0.005636 -0.056900
-0.025698 0.006424 -0.056956
-0.026525 0.007137 -0.057031
-0.027545 0.007756 -0.057130
-0.028747 0.008285 -0.057252
-0.031262 0.008163 -0.057535
-0.033077 0.008399 -0.057732
-0.034986 0.008595 -0.057940
-0.036783 0.008853 -0.058135
-0.039694 0.008573 -0.058467
-0.041348 0.008916 -0.058645
-0.043026 0.009254 -0.058825
-0.044799 0.009552 -0.059017
-0.048873 0.008753 -0.059492
-0.017978 0.002269 -0.063224
-0.017538 0.003629 -0.063127
-0.017494 0.004778 -0.063086
-0.017992 0.005643 -0.063120
-0.018657 0.006422 -0.063178
-0.019470 0.007126 -0.063256
-0.021253 0.007335 -0.063470
-0.023409 0.007361 -0.063735
-0.051603 0.006037 -0.067268
-0.051556 0.007231 -0.067229
-0.052232 0.008077 -0.067290
-0.053097 0.008834 -0.067378
-0.054129 0.009515 -0.067488
-0.056225 0.009698 -0.067745
-0.057926 0.010073 -0.067948
-0.060499 0.010048 -0.068271
-0.008475 -0.000759 -0.069108
-0.007711 0.000778 -0.068945
-0.007884 0.001803 -0.068928
-0.008057 0.002827 -0.068911
-0.008229 0.003849 -0.068895
-0.008092 0.005034 -0.068830
-0.008284 0.006042 -0.068818
-0.008593 0.006987 -0.068823
-0.009038 0.007860 -0.068850
-0.009870 0.008531 -0.068937
-0.010718 0.009196 -0.069027
-0.011713 0.009786 -0.069140
-0.012948 0.010256 -0.069290
-0.016379 0.009604 -0.069778
-0.018092 0.009844 -0.070002
-0.061838 0.006818 -0.076084
-0.062160 0.007852 -0.076094
-0.062727 0.008772 -0.076143
-0.063495 0.009599 -0.076222
-0.065110 0.010037 -0.076431
-0.066513 0.010577 -0.076608
-0.068342 0.010928 -0.076850
-0.002547 -0.002210 -0.075284
-0.002660 -0.001155 -0.075251
-0.002773 -0.000102 -0.075218
-0.002152 0.001352 -0.075060
-0.002327 0.002366 -0.075039
-0.002199 0.003542 -0.074966
-0.002373 0.004553 -0.074945
-0.002839 0.005405 -0.074974
-0.003872 0.005954 -0.075101
-0.003619 0.007191 -0.075008
-0.003732 0.008230 -0.074978
-0.003844 0.009268 -0.074948
-0.004121 0.010218 -0.074947
-0.005613 0.010531 -0.075153
-0.006985 0.010913 -0.075339
-0.008797 0.011071 -0.075599
-0.010729 0.011174 -0.075880
-0.071249 0.006962 -0.085081
-0.071371 0.008105 -0.085057
-0.071827 0.009094 -0.085089
-0.072518 0.009977 -0.085161
-0.073944 0.010528 -0.085356
-0.075303 0.011114 -0.085541
-0.077040 0.011535 -0.085788
0.005367 -0.009148 -0.081365
0.005173 -0.008138 -0.081338
0.005261 -0.006967 -0.081258
0.005068 -0.005960 -0.081232
0.004875 -0.004955 -0.081206
0.004683 -0.003951 -0.081181
0.004771 -0.002789 -0.081103
0.004579 -0.001789 -0.081078
0.004387 -0.000790 -0.081054
0.004198 0.000209 -0.081029
0.004316 0.001378 -0.080948
0.004140 0.002381 -0.080921
0.003964 0.003382 -0.080896
0.003788 0.004382 -0.080870
0.003612 0.005381 -0.080845
0.003730 0.006538 -0.080766
0.003555 0.007533 -0.080741
0.003380 0.008527 -0.080717
0.003205 0.009520 -0.080694
0.003323 0.010668 -0.080616
0.003149 0.011657 -0.080593
0.002974 0.012645 -0.080570
0.002800 0.013632 -0.080548
-0.003302 0.011517 -0.081628
-0.005195 0.011621 -0.081926
-0.007100 0.011727 -0.082225
-0.010301 0.011171 -0.082765
-0.080127 0.007484 -0.094247
-0.080231 0.008650 -0.094216
-0.080670 0.009664 -0.094246
-0.081360 0.010566 -0.094322
-0.082248 0.011381 -0.094434
-0.084192 0.011733 -0.094740
-0.086049 0.012129 -0.095029
0.019857 -0.010815 -0.085968
0.021386 -0.008785 -0.085578
0.022842 -0.006809 -0.085205
0.023146 -0.005533 -0.085071
0.023449 -0.004261 -0.084937
0.023476 -0.003157 -0.084861
0.023958 -0.001787 -0.084691
0.023974 -0.000697 -0.084618
0.023822 0.000294 -0.084580
0.023652 0.001271 -0.084547
0.023482 0.002247 -0.084513
0.023476 0.003317 -0.084447
0.023164 0.004208 -0.084443
0.022852 0.005098 -0.084440
0.022540 0.005988 -0.084437
0.022311 0.006924 -0.084418
0.021874 0.007742 -0.084442
0.021436 0.008559 -0.084466
0.020999 0.009376 -0.084490
0.020527 0.010174 -0.084522
0.020021 0.010953 -0.084561
0.019547 0.011750 -0.084593
0.018926 0.012467 -0.084656
0.018303 0.013183 -0.084720
0.012091 0.010861 -0.085917
0.010583 0.011114 -0.086160
0.009068 0.011369 -0.086404
0.007547 0.011626 -0.086650
0.005015 0.011349 -0.087099
0.003847 0.011807 -0.087273
0.002888 0.012379 -0.087405
0.002103 0.013045 -0.087502
0.001545 0.013832 -0.087553
0.001374 0.014821 -0.087527
0.000175 0.015275 -0.087708
-0.001402 0.015539 -0.087965
-0.087556 0.007554 -0.103439
-0.087094 0.008983 -0.103291
-0.087955 0.009824 -0.103405
-0.088573 0.010773 -0.103471
-0.089423 0.011622 -0.103583
-0.090483 0.012381 -0.103737
-0.093016 0.012507 -0.104182
0.022376 -0.013946 -0.092541
0.025054 -0.011188 -0.091858
0.027625 -0.008512 -0.091201
0.027875 -0.007267 -0.091064
0.028263 -0.005942 -0.090898
0.028554 -0.004681 -0.090753
0.029148 -0.003241 -0.090542
0.029152 -0.002161 -0.090462
0.029145 -0.001089 -0.090386
0.028220 -0.000565 -0.090514
0.027342 -0.000011 -0.090632
0.027168 0.000960 -0.090594
0.028722 0.002941 -0.090173
0.028419 0.003829 -0.090165
0.028110 0.004712 -0.090159
0.027938 0.005674 -0.090122
0.027576 0.006525 -0.090128
0.027142 0.007335 -0.090150
0.026709 0.008145 -0.090173
0.026220 0.008923 -0.090208
0.025805 0.009743 -0.090227
0.025381 0.010558 -0.090249
0.024867 0.011322 -0.090290
0.024196 0.011999 -0.090367
0.023580 0.012708 -0.090431
0.022965 0.013418 -0.090496
0.022349 0.014129 -0.090561
0.021732 0.014840 -0.090627
0.020946 0.015460 -0.090730
0.020265 0.016139 -0.090810
0.019504 0.016775 -0.090908
0.018741 0.017412 -0.091007
0.017664 0.017884 -0.091174
0.016898 0.018524 -0.091274
0.016066 0.019130 -0.091389
0.000672 0.012069 -0.094674
-0.001951 0.011778 -0.095176
-0.003190 0.012219 -0.095377
-0.004202 0.012781 -0.095529
-0.097673 0.007763 -0.113368
-0.096725 0.009415 -0.113103
-0.096708 0.010658 -0.113037
-0.097416 0.011587 -0.113126
-0.098337 0.012425 -0.113260
-0.099514 0.013157 -0.113449
-0.102567 0.013098 -0.114035
0.031998 -0.010410 -0.097241
0.032605 -0.008941 -0.097005
0.033104 -0.007545 -0.096795
0.033328 -0.006325 -0.096653
0.034256 -0.004676 -0.096342
0.034250 -0.003604 -0.096256
0.034237 -0.002539 -0.096172
0.034224 -0.001477 -0.096089
0.032721 -0.001314 -0.096363
0.032471 -0.000395 -0.096337
0.032295 0.000568 -0.096294
0.033862 0.002564 -0.095836
0.033704 0.003530 -0.095790
0.033403 0.004409 -0.095779
0.033097 0.005285 -0.095769
0.032743 0.006132 -0.095771
0.032288 0.006920 -0.095798
0.031909 0.007751 -0.095807
0.031497 0.008564 -0.095824
0.031085 0.009376 -0.095841
0.030596 0.010144 -0.095877
0.030025 0.010865 -0.095933
0.029516 0.011623 -0.095975
0.028922 0.012333 -0.096037
0.028315 0.013036 -0.096102
0.027542 0.013647 -0.096207
0.026931 0.014351 -0.096274
0.026320 0.015055 -0.096341
0.025631 0.015717 -0.096427
0.024881 0.016347 -0.096528
0.023774 0.016784 -0.096712
0.022951 0.017378 -0.096830
0.022200 0.018014 -0.096932
0.021471 0.018662 -0.097028
0.020319 0.019086 -0.097224
0.019096 0.019476 -0.097436
0.017601 0.019727 -0.097713
0.016099 0.019978 -0.097990
0.013528 0.019674 -0.098518
0.012034 0.019943 -0.098794
0.011347 0.020637 -0.098881
-0.105762 0.008989 -0.123135
-0.105382 0.010402 -0.122980
-0.105610 0.011553 -0.122964
-0.106406 0.012463 -0.123078
-0.107460 0.013267 -0.123250
-0.108765 0.013970 -0.123480
0.031998 -0.015033 -0.104374
0.031918 -0.013980 -0.104294
0.031839 -0.012930 -0.104214
0.031760 -0.011881 -0.104135
0.032058 -0.010599 -0.103959
0.031979 -0.009556 -0.103881
0.031901 -0.008515 -0.103803
0.031823 -0.007476 -0.103726
0.032120 -0.006209 -0.103553
0.032042 -0.005175 -0.103477
0.031965 -0.004143 -0.103402
0.031888 -0.003113 -0.103327
0.032182 -0.001861 -0.103158
0.032104 -0.000837 -0.103084
0.032026 0.000186 -0.103011
0.031950 0.001207 -0.102939
0.032244 0.002445 -0.102772
0.032167 0.003461 -0.102701
0.032091 0.004475 -0.102630
0.032015 0.005488 -0.102560
0.031939 0.006498 -0.102490
0.032233 0.007720 -0.102327
0.032157 0.008726 -0.102258
0.032080 0.009729 -0.102190
0.032004 0.010730 -0.102123
0.032295 0.011938 -0.101963
0.032219 0.012935 -0.101896
0.032144 0.013930 -0.101831
0.031592 0.014656 -0.101885
0.030630 0.015154 -0.102044
0.029916 0.015792 -0.102140
0.029201 0.016431 -0.102237
0.028484 0.017071 -0.102334
0.027764 0.017710 -0.102433
0.026571 0.018093 -0.102651
0.025751 0.018681 -0.102775
0.024907 0.019260 -0.102905
0.023443 0.019507 -0.103191
0.020942 0.019204 -0.103737
0.019457 0.019452 -0.104028
0.017965 0.019702 -0.104320
0.017008 0.020240 -0.104480
0.017102 0.021333 -0.104376
0.016173 0.021888 -0.104529
0.014657 0.022140 -0.104828
0.013133 0.022394 -0.105130
0.006672 0.020109 -0.106659
0.005113 0.020368 -0.106968
0.024513 -0.018896 -0.113136
0.024440 -0.017821 -0.113046
0.024367 -0.016748 -0.112956
0.024684 -0.015434 -0.112759
0.024611 -0.014367 -0.112671
0.024538 -0.013301 -0.112583
0.024465 -0.012239 -0.112496
0.026220 -0.010056 -0.111909
0.026159 -0.008996 -0.111820
0.025834 -0.008098 -0.111804
0.025352 -0.007296 -0.111832
0.024880 -0.006489 -0.111857
0.024808 -0.005441 -0.111774
0.024736 -0.004395 -0.111691
0.024665 -0.003351 -0.111609
0.024978 -0.002081 -0.111422
0.024907 -0.001043 -0.111341
0.024836 -0.000006 -0.111261
0.024765 0.001029 -0.111181
0.024694 0.002062 -0.111102
0.025006 0.003314 -0.110920
0.024935 0.004342 -0.110842
0.024865 0.005367 -0.110764
0.024794 0.006391 -0.110688
0.025105 0.007630 -0.110509
0.025033 0.008648 -0.110434
0.024964 0.009666 -0.110358
0.024892 0.010680 -0.110284
0.025201 0.011905 -0.110109
0.025132 0.012915 -0.110035
0.025062 0.013924 -0.109963
0.024992 0.014930 -0.109891
0.024922 0.015935 -0.109819
0.025229 0.017143 -0.109648
0.025158 0.018143 -0.109578
0.025088 0.019141 -0.109508
0.023798 0.019481 -0.109764
0.022335 0.019732 -0.110067
0.022155 0.020673 -0.110028
0.021975 0.021612 -0.109989
0.020586 0.021912 -0.110273
0.018045 0.021610 -0.110862
0.012746 0.019877 -0.112183
0.011218 0.020131 -0.112502
0.009683 0.020387 -0.112824
0.031121 -0.010548 -0.117714
0.031188 -0.009414 -0.117580
0.030944 -0.008474 -0.117538
0.030362 -0.007743 -0.117594
0.029627 -0.007106 -0.117695
0.028709 -0.006578 -0.117849
0.027372 -0.006302 -0.118125
0.017307 -0.011290 -0.120926
0.017241 -0.010218 -0.120832
0.017175 -0.009148 -0.120738
0.017109 -0.008080 -0.120646
0.017443 -0.006778 -0.120439
0.017377 -0.005715 -0.120347
0.017312 -0.004655 -0.120257
0.017247 -0.003597 -0.120167
0.017181 -0.002540 -0.120077
0.017511 -0.001257 -0.119875
0.016228 -0.000910 -0.120137
0.015099 -0.000469 -0.120354
0.014245 0.000133 -0.120492
0.028589 0.009391 -0.116286
0.028792 0.010556 -0.116126
0.028578 0.011482 -0.116087
0.028192 0.012312 -0.116097
0.027454 0.012943 -0.116209
0.026584 0.013503 -0.116358
0.025351 0.013864 -0.116610
0.017587 0.010627 -0.118719
0.017522 0.011654 -0.118638
0.017849 0.012892 -0.118447
0.017784 0.013915 -0.118368
0.017722 0.014936 -0.118289
0.017656 0.015954 -0.118211
0.017982 0.017179 -0.118023
0.017917 0.018193 -0.117946
0.017853 0.019205 -0.117870
0.017192 0.019899 -0.117963
0.035886 -0.011069 -0.123492
0.036128 -0.009828 -0.123294
0.036001 -0.008822 -0.123210
0.035477 -0.008066 -0.123250
0.034800 -0.007404 -0.123337
0.033934 -0.006858 -0.123483
0.033569 0.009924 -0.121759
0.033513 0.010934 -0.121667
0.033217 0.011806 -0.121649
0.032625 0.012508 -0.121721
0.031892 0.013132 -0.121835
0.030941 0.013636 -0.122016
0.034905 0.010471 -0.128078
0.034779 0.011438 -0.128003
-0.027656 0.007053 -0.056341
-0.027995 0.008106 -0.056318
-0.028586 0.008922 -0.056334
-0.029313 0.009610 -0.056370
-0.030349 0.010014 -0.056453
-0.031328 0.010473 -0.056528
-0.032370 0.010876 -0.056611
-0.033492 0.011209 -0.056707
-0.035136 0.011071 -0.056881
-0.036372 0.011309 -0.056993
-0.037627 0.011533 -0.057109
-0.038897 0.011749 -0.057227
-0.040705 0.011487 -0.057425
-0.041964 0.011722 -0.057541
-0.043233 0.011954 -0.057658
-0.044524 0.012169 -0.057779
-0.046451 0.011829 -0.057994
-0.047828 0.011979 -0.058127
-0.049325 0.012031 -0.058278
-0.050998 0.011934 -0.058455
-0.019858 0.007312 -0.062491
-0.020400 0.008162 -0.062496
-0.021059 0.008899 -0.062521
-0.021818 0.009542 -0.062563
-0.022666 0.010102 -0.062621
-0.023959 0.010245 -0.062754
-0.025164 0.010475 -0.062873
-0.026622 0.010473 -0.063034
-0.053031 0.009886 -0.066024
-0.053488 0.010859 -0.066018
-0.054332 0.011494 -0.066076
-0.055261 0.012059 -0.066148
-0.056251 0.012572 -0.066230
-0.057321 0.013020 -0.066326
-0.058955 0.012990 -0.066514
-0.060297 0.013214 -0.066654
-0.061782 0.013323 -0.066818
-0.063633 0.013128 -0.067041
-0.009989 0.002899 -0.068615
-0.010096 0.004176 -0.068531
-0.009941 0.005706 -0.068398
-0.010215 0.006808 -0.068348
-0.010488 0.007908 -0.068298
-0.010793 0.008973 -0.068255
-0.011125 0.010009 -0.068217
-0.011796 0.010714 -0.068245
-0.012573 0.011316 -0.068293
-0.013408 0.011864 -0.068352
-0.014600 0.012070 -0.068479
-0.017438 0.010710 -0.068917
-0.017582 0.011927 -0.068845
-0.018206 0.012685 -0.068865
-0.019518 0.012794 -0.069014
-0.021654 0.012134 -0.069319
-0.064306 0.009538 -0.074730
-0.064308 0.010911 -0.074638
-0.064824 0.011849 -0.074639
-0.065614 0.012555 -0.074691
-0.066558 0.013134 -0.074771
-0.067598 0.013634 -0.074869
-0.068739 0.014054 -0.074984
-0.070625 0.013863 -0.075235
-0.072284 0.013865 -0.075444
-0.003460 0.000864 -0.074897
-0.003589 0.002124 -0.074804
-0.003786 0.003310 -0.074727
-0.004065 0.004409 -0.074668
-0.003926 0.005926 -0.074521
-0.004204 0.007017 -0.074463
-0.004499 0.008090 -0.074409
-0.004628 0.009324 -0.074321
-0.004504 0.010804 -0.074180
-0.005165 0.011504 -0.074205
-0.005918 0.012115 -0.074250
-0.006743 0.012655 -0.074310
-0.007912 0.012860 -0.074443
-0.008976 0.013172 -0.074554
-0.010171 0.013361 -0.074692
-0.011452 0.013470 -0.074848
-0.014394 0.011992 -0.075351
-0.014593 0.013150 -0.075281
-0.015957 0.013196 -0.075454
-0.017857 0.012740 -0.075738
-0.073517 0.011196 -0.083289
-0.073968 0.012202 -0.083276
-0.074665 0.013004 -0.083312
-0.075493 0.013700 -0.083374
-0.076707 0.014083 -0.083512
-0.077867 0.014513 -0.083640
-0.079156 0.014843 -0.083794
-0.080648 0.015014 -0.083987
0.004577 -0.006536 -0.081454
0.004285 -0.005424 -0.081384
0.004344 -0.003944 -0.081230
0.004025 -0.002870 -0.081167
0.003706 -0.001797 -0.081105
0.003403 -0.000713 -0.081040
0.003526 0.000814 -0.080875
0.003241 0.001910 -0.080807
0.002957 0.003003 -0.080739
0.002673 0.004093 -0.080672
0.002798 0.005599 -0.080510
0.002516 0.006683 -0.080444
0.002234 0.007764 -0.080378
0.001953 0.008843 -0.080313
0.001672 0.009919 -0.080249
0.001799 0.011401 -0.080090
0.001519 0.012470 -0.080026
0.001240 0.013537 -0.079963
0.000962 0.014601 -0.079901
-0.001177 0.013820 -0.080269
-0.002610 0.013747 -0.080473
-0.003693 0.014023 -0.080596
-0.004908 0.014173 -0.080750
-0.006743 0.013723 -0.081046
-0.008011 0.013833 -0.081212
-0.010876 0.012403 -0.081743
-0.010995 0.013634 -0.081645
-0.013392 0.012675 -0.082068
-0.082770 0.011647 -0.092168
-0.083037 0.012814 -0.092112
-0.083609 0.013733 -0.092122
-0.084507 0.014393 -0.092203
-0.085527 0.014957 -0.092310
-0.087156 0.015041 -0.092546
-0.088599 0.015279 -0.092744
-0.090401 0.015240 -0.093017
0.021949 -0.004944 -0.085768
0.023787 -0.001475 -0.085125
0.023749 -0.000109 -0.084978
0.023712 0.001251 -0.084832
0.023592 0.002515 -0.084709
0.023710 0.004034 -0.084525
0.023427 0.005107 -0.084447
0.023004 0.006026 -0.084405
0.022577 0.006938 -0.084365
0.022395 0.008111 -0.084263
0.021953 0.009001 -0.084228
0.021414 0.009786 -0.084219
0.020876 0.010570 -0.084211
0.020339 0.011354 -0.084203
0.019908 0.012249 -0.084167
0.019316 0.012972 -0.084174
0.018743 0.013715 -0.084176
0.018078 0.014360 -0.084203
0.015179 0.012677 -0.084801
0.014075 0.012875 -0.084939
0.012968 0.013074 -0.085078
0.011859 0.013274 -0.085218
0.010305 0.013022 -0.085470
0.009188 0.013222 -0.085612
0.008068 0.013424 -0.085753
0.006943 0.013625 -0.085896
0.005816 0.013826 -0.086040
0.004337 0.013677 -0.086272
0.003394 0.014072 -0.086369
0.002536 0.014553 -0.086445
0.001773 0.015132 -0.086496
0.001342 0.016040 -0.086465
0.001093 0.017125 -0.086389
-0.000049 0.017329 -0.086537
-0.001194 0.017534 -0.086686
-0.003732 0.016383 -0.087181
-0.006315 0.015204 -0.087686
-0.008922 0.014015 -0.088197
-0.089892 0.012595 -0.100900
-0.090397 0.013580 -0.100894
-0.091115 0.014397 -0.100937
-0.091977 0.015101 -0.101013
-0.093280 0.015464 -0.101192
-0.094533 0.015869 -0.101359
-0.095966 0.016139 -0.101567
-0.097703 0.016180 -0.101845
0.027632 -0.005955 -0.091844
0.028226 -0.003851 -0.091497
0.029544 -0.000937 -0.090944
0.029491 0.000410 -0.090787
0.029338 0.001640 -0.090659
0.028267 0.001836 -0.090795
0.027516 0.002393 -0.090839
0.028849 0.005266 -0.090290
0.028428 0.006181 -0.090243
0.028001 0.007086 -0.090197
0.027802 0.008239 -0.090088
0.027265 0.009019 -0.090075
0.026728 0.009798 -0.090062
0.026178 0.010560 -0.090054
0.025733 0.011436 -0.090016
0.025213 0.012229 -0.090000
0.024625 0.012947 -0.090004
0.024025 0.013653 -0.090011
0.023371 0.014300 -0.090034
0.022688 0.014915 -0.090066
0.022015 0.015543 -0.090095
0.021343 0.016170 -0.090124
0.020670 0.016798 -0.090153
0.019986 0.017413 -0.090186
0.019259 0.017984 -0.090231
0.018494 0.018516 -0.090287
0.017729 0.019049 -0.090343
0.016860 0.019476 -0.090428
0.016093 0.020010 -0.090485
0.014676 0.019881 -0.090721
0.007202 0.013608 -0.092611
0.006076 0.013810 -0.092763
0.004495 0.013558 -0.093040
0.003361 0.013760 -0.093194
0.002224 0.013964 -0.093349
0.001084 0.014168 -0.093505
-0.000521 0.013914 -0.093786
-0.001670 0.014119 -0.093944
-0.002773 0.014372 -0.094090
-0.003771 0.014732 -0.094207
-0.004812 0.015052 -0.094336
-0.005516 0.015703 -0.094374
-0.006077 0.016493 -0.094375
-0.006350 0.017559 -0.094298
-0.098787 0.012284 -0.110249
-0.098820 0.013649 -0.110123
-0.099343 0.014634 -0.110119
-0.100154 0.015396 -0.110187
-0.101163 0.016008 -0.110304
-0.102311 0.016517 -0.110455
-0.103614 0.016911 -0.110645
-0.106193 0.016347 -0.111148
0.032900 -0.007357 -0.097996
0.034055 -0.004579 -0.097442
0.035257 -0.001761 -0.096875
0.035177 -0.000438 -0.096710
0.035098 0.000879 -0.096545
0.034230 0.001289 -0.096627
0.033172 0.001484 -0.096767
0.034601 0.004505 -0.096139
0.034179 0.005414 -0.096085
0.033758 0.006322 -0.096031
0.033337 0.007228 -0.095977
0.033025 0.008254 -0.095891
0.032485 0.009022 -0.095876
0.031965 0.009811 -0.095854
0.031445 0.010600 -0.095834
0.031016 0.011486 -0.095786
0.030420 0.012188 -0.095790
0.029823 0.012889 -0.095794
0.029228 0.013590 -0.095798
0.028573 0.014226 -0.095821
0.027906 0.014849 -0.095848
0.027238 0.015471 -0.095875
0.026570 0.016093 -0.095903
0.025901 0.016714 -0.095931
0.025148 0.017246 -0.095985
0.024391 0.017775 -0.096041
0.023634 0.018304 -0.096096
0.022867 0.018823 -0.096156
0.021927 0.019163 -0.096266
0.021161 0.019686 -0.096325
0.020416 0.020232 -0.096378
0.019660 0.020766 -0.096435
0.018598 0.020987 -0.096582
0.017507 0.021183 -0.096737
0.016414 0.021379 -0.096894
0.015318 0.021576 -0.097051
0.014219 0.021773 -0.097208
0.012676 0.021526 -0.097496
0.011569 0.021724 -0.097656
0.010459 0.021922 -0.097816
0.008436 0.021215 -0.098242
-0.000257 0.013896 -0.100605
-0.001405 0.014101 -0.100772
-0.002556 0.014306 -0.100940
-0.003710 0.014512 -0.101109
-0.107617 0.013591 -0.119674
-0.108212 0.014536 -0.119687
-0.108830 0.015464 -0.119707
-0.109651 0.016238 -0.119780
-0.110617 0.016906 -0.119892
-0.112142 0.017161 -0.120151
-0.113558 0.017501 -0.120381
-0.115269 0.017629 -0.120689
0.031331 -0.012403 -0.105781
0.031269 -0.011016 -0.105589
0.031208 -0.009633 -0.105397
0.031147 -0.008258 -0.105207
0.031701 -0.006175 -0.104813
0.031640 -0.004814 -0.104626
0.031579 -0.003457 -0.104439
0.031519 -0.002106 -0.104254
0.031459 -0.000761 -0.104070
0.032006 0.001268 -0.103687
0.031946 0.002599 -0.103506
0.031886 0.003924 -0.103326
0.031826 0.005244 -0.103147
0.032367 0.007231 -0.102773
0.032306 0.008536 -0.102597
0.032246 0.009837 -0.102422
0.032186 0.011132 -0.102249
0.032720 0.013077 -0.101883
0.032661 0.014359 -0.101711
0.032379 0.015395 -0.101613
0.031715 0.016012 -0.101640
0.030948 0.016515 -0.101700
0.030212 0.017056 -0.101750
0.029477 0.017596 -0.101801
0.028741 0.018137 -0.101851
0.028005 0.018678 -0.101903
0.027161 0.019104 -0.101989
0.026366 0.019585 -0.102059
0.025571 0.020066 -0.102131
0.024774 0.020547 -0.102202
0.023598 0.020632 -0.102394
0.022522 0.020826 -0.102555
0.021443 0.021020 -0.102716
0.020361 0.021215 -0.102878
0.018847 0.020969 -0.103177
0.017758 0.021164 -0.103341
0.016665 0.021360 -0.103506
0.015663 0.021651 -0.103642
0.015378 0.022672 -0.103554
0.014908 0.023503 -0.103525
0.013808 0.023699 -0.103693
0.012706 0.023897 -0.103861
0.011600 0.024094 -0.104031
0.008037 0.021854 -0.104963
0.006916 0.022054 -0.105136
0.005793 0.022254 -0.105310
0.004666 0.022455 -0.105484
0.002842 0.021978 -0.105873
0.000591 0.021094 -0.106393
0.023580 -0.015887 -0.114575
0.023535 -0.014469 -0.114363
0.023489 -0.013057 -0.114151
0.023444 -0.011651 -0.113941
0.026529 -0.006681 -0.112628
0.026427 -0.005366 -0.112443
0.025780 -0.004672 -0.112451
0.025052 -0.004071 -0.112487
0.024209 -0.003599 -0.112564
0.024440 -0.001924 -0.112266
0.024394 -0.000566 -0.112066
0.024348 0.000786 -0.111868
0.024302 0.002133 -0.111671
0.024882 0.004162 -0.111259
0.024835 0.005495 -0.111065
0.024789 0.006822 -0.110872
0.024743 0.008144 -0.110681
0.025316 0.010131 -0.110278
0.025270 0.011440 -0.110089
0.025223 0.012741 -0.109902
0.025178 0.014040 -0.109715
0.025132 0.015332 -0.109531
0.025694 0.017266 -0.109139
0.025647 0.018545 -0.108957
0.025601 0.019819 -0.108776
0.025334 0.020857 -0.108671
0.023844 0.020612 -0.108981
0.022768 0.020805 -0.109150
0.021690 0.020999 -0.109320
0.021016 0.021615 -0.109354
0.021037 0.022946 -0.109155
0.019955 0.023140 -0.109327
0.018870 0.023335 -0.109499
0.017782 0.023531 -0.109673
0.016691 0.023726 -0.109848
0.013182 0.021485 -0.110827
0.012077 0.021682 -0.111005
0.010968 0.021881 -0.111184
0.009857 0.022080 -0.111363
0.008293 0.021833 -0.111692
0.006626 0.021490 -0.112055
0.003858 0.020069 -0.112780
0.031906 -0.007984 -0.118778
0.032251 -0.006144 -0.118408
0.031656 -0.005399 -0.118394
0.030948 -0.004785 -0.118422
0.030151 -0.004273 -0.118485
0.029284 -0.003840 -0.118574
0.027714 -0.004205 -0.118926
0.016064 -0.010152 -0.122082
0.016032 -0.008746 -0.121858
0.016001 -0.007345 -0.121636
0.016630 -0.005224 -0.121172
0.016599 -0.003837 -0.120953
0.016568 -0.002457 -0.120735
0.016538 -0.001081 -0.120518
0.028566 0.013366 -0.115900
0.028003 0.014104 -0.115888
0.027336 0.014728 -0.115915
0.026599 0.015278 -0.115968
0.025759 0.015717 -0.116059
0.024304 0.015505 -0.116372
0.017611 0.009750 -0.118576
0.017579 0.011074 -0.118372
0.017548 0.012393 -0.118169
0.018151 0.014372 -0.117739
0.018118 0.015676 -0.117539
0.018084 0.016974 -0.117341
0.018052 0.018269 -0.117144
0.018648 0.020206 -0.116724
0.018256 0.021119 -0.116657
0.017165 0.021315 -0.116840
0.016071 0.021511 -0.117024
0.014974 0.021708 -0.117208
0.013435 0.021461 -0.117549
0.011481 0.020804 -0.118036
0.008303 0.018930 -0.118952
0.038160 -0.008165 -0.124543
0.038055 -0.006845 -0.124327
0.037685 -0.005841 -0.124218
0.036969 -0.005248 -0.124250
0.036160 -0.004763 -0.124319
0.035168 -0.004491 -0.124463
0.033816 -0.004634 -0.124750
0.033758 0.012007 -0.121841
0.033669 0.013262 -0.121641
0.033084 0.013967 -0.121635
0.032388 0.014550 -0.121673
0.031603 0.015036 -0.121747
0.030349 0.015014 -0.122001
0.029044 0.014943 -0.122275
0.009755 0.006660 -0.127584
0.009737 0.008011 -0.127361
0.009721 0.009357 -0.127138
0.010363 0.011378 -0.126669
0.010346 0.012709 -0.126450
0.010328 0.014036 -0.126233
0.034835 0.012909 -0.128203
-0.032335 0.009641 -0.055749
-0.032834 0.010729 -0.055704
-0.033662 0.011265 -0.055729
-0.034533 0.011729 -0.055764
-0.035443 0.012131 -0.055807
-0.036516 0.012267 -0.055884
-0.037519 0.012520 -0.055947
-0.038532 0.012759 -0.056012
-0.039577 0.012948 -0.056084
-0.040805 0.012847 -0.056194
-0.041875 0.013004 -0.056271
-0.042954 0.013149 -0.056349
-0.044035 0.013295 -0.056429
-0.045336 0.013097 -0.056553
-0.046442 0.013211 -0.056637
-0.047550 0.013326 -0.056721
-0.048676 0.013418 -0.056809
-0.049837 0.013457 -0.056904
-0.051328 0.012992 -0.057067
-0.052567 0.012922 -0.057177
-0.053450 0.013404 -0.057215
-0.054737 0.013270 -0.057335
-0.023635 0.008519 -0.062018
-0.023782 0.010224 -0.061873
-0.024528 0.010887 -0.061878
-0.025342 0.011430 -0.061899
-0.026216 0.011872 -0.061935
-0.027229 0.012078 -0.062005
-0.028241 0.012289 -0.062075
-0.029310 0.012406 -0.062159
-0.030445 0.012417 -0.062258
-0.032415 0.011038 -0.062559
-0.054663 0.011169 -0.064568
-0.055223 0.012156 -0.064532
-0.055953 0.012879 -0.064536
-0.056861 0.013330 -0.064581
-0.057820 0.013707 -0.064637
-0.058810 0.014037 -0.064701
-0.059975 0.014107 -0.064804
-0.061057 0.014305 -0.064888
-0.062177 0.014451 -0.064981
-0.063341 0.014535 -0.065084
-0.064953 0.013963 -0.065286
-0.066393 0.013653 -0.065450
-0.067389 0.013999 -0.065514
-0.012542 0.005908 -0.068169
-0.012907 0.007267 -0.068059
-0.013285 0.008594 -0.067954
-0.013215 0.010720 -0.067723
-0.013813 0.011633 -0.067683
-0.014527 0.012335 -0.067675
-0.015301 0.012929 -0.067684
-0.016144 0.013398 -0.067713
-0.018621 0.010989 -0.068196
-0.019354 0.011665 -0.068194
-0.019452 0.013448 -0.068017
-0.019998 0.014440 -0.067965
-0.021294 0.014131 -0.068119
-0.022381 0.014188 -0.068215
-0.023470 0.014246 -0.068312
-0.024569 0.014290 -0.068412
-0.066056 0.011973 -0.072743
-0.066682 0.012864 -0.072720
-0.067459 0.013532 -0.072734
-0.068323 0.014072 -0.072770
-0.069315 0.014429 -0.072837
-0.070333 0.014749 -0.072911
-0.071396 0.015006 -0.072996
-0.072766 0.014826 -0.073156
-0.073892 0.015002 -0.073256
-0.075128 0.015025 -0.073383
-0.076473 0.014898 -0.073536
-0.006222 0.004918 -0.074557
-0.006139 0.007134 -0.074286
-0.006527 0.008455 -0.074168
-0.006331 0.010852 -0.073865
-0.006789 0.012022 -0.073772
-0.007296 0.013095 -0.073695
-0.008078 0.013660 -0.073705
-0.008897 0.014156 -0.073727
-0.009764 0.014567 -0.073764
-0.010757 0.014748 -0.073841
-0.011733 0.014963 -0.073912
-0.012751 0.015107 -0.073996
-0.015793 0.011650 -0.074703
-0.015887 0.013453 -0.074502
-0.016160 0.014927 -0.074357
-0.017234 0.014986 -0.074458
-0.018310 0.015045 -0.074559
-0.019422 0.015046 -0.074671
-0.021185 0.013924 -0.074979
-0.075678 0.012094 -0.081008
-0.076138 0.013230 -0.080936
-0.076870 0.013976 -0.080937
-0.077695 0.014590 -0.080964
-0.078856 0.014734 -0.081080
-0.079823 0.015151 -0.081144
-0.080845 0.015493 -0.081223
-0.082127 0.015478 -0.081371
-0.083331 0.015576 -0.081498
-0.084630 0.015546 -0.081649
-0.086076 0.015322 -0.081839
0.003124 -0.002858 -0.081516
0.002663 -0.001604 -0.081396
0.002204 -0.000355 -0.081277
0.001747 0.000889 -0.081158
0.001770 0.003066 -0.080869
0.001369 0.004399 -0.080733
0.000969 0.005727 -0.080599
0.000571 0.007050 -0.080466
0.000629 0.009240 -0.080172
0.000234 0.010548 -0.080041
-0.000159 0.011851 -0.079910
-0.000551 0.013148 -0.079780
-0.000942 0.014440 -0.079652
-0.000914 0.016508 -0.079379
-0.002268 0.015983 -0.079587
-0.003629 0.015455 -0.079797
-0.004623 0.015612 -0.079880
-0.005692 0.015635 -0.079989
-0.006714 0.015749 -0.080081
-0.007768 0.015807 -0.080184
-0.008824 0.015865 -0.080287
-0.012082 0.011949 -0.081138
-0.012128 0.013848 -0.080897
-0.012203 0.015685 -0.080668
-0.013267 0.015744 -0.080774
-0.014650 0.015242 -0.080986
-0.015938 0.014918 -0.081165
-0.085905 0.013435 -0.089402
-0.086535 0.014336 -0.089373
-0.087266 0.015095 -0.089373
-0.088221 0.015550 -0.089437
-0.089238 0.015922 -0.089519
-0.090317 0.016213 -0.089618
-0.091733 0.016054 -0.089813
-0.093049 0.016035 -0.089978
-0.094524 0.015811 -0.090188
0.023038 0.000301 -0.085946
0.023317 0.003175 -0.085494
0.023006 0.004754 -0.085293
0.022666 0.006260 -0.085106
0.022676 0.008500 -0.084776
0.022113 0.009505 -0.084686
0.021552 0.010509 -0.084596
0.020992 0.011509 -0.084507
0.020508 0.012663 -0.084388
0.019851 0.013449 -0.084341
0.019195 0.014232 -0.084295
0.018508 0.014950 -0.084261
0.017935 0.015897 -0.084183
0.017178 0.016464 -0.084179
0.015396 0.014951 -0.084586
0.014419 0.015082 -0.084670
0.013441 0.015213 -0.084754
0.012312 0.015046 -0.084898
0.011331 0.015178 -0.084983
0.010348 0.015309 -0.085068
0.009364 0.015441 -0.085154
0.008226 0.015274 -0.085300
0.007238 0.015406 -0.085387
0.006249 0.015538 -0.085475
0.005258 0.015671 -0.085563
0.004121 0.015524 -0.085707
0.003174 0.015746 -0.085778
0.002272 0.016055 -0.085832
0.001416 0.016455 -0.085868
0.000620 0.016967 -0.085882
0.000289 0.018352 -0.085720
-0.000433 0.018997 -0.085708
-0.001430 0.019129 -0.085799
-0.002428 0.019262 -0.085890
-0.003782 0.018743 -0.086115
-0.005141 0.018222 -0.086340
-0.006506 0.017700 -0.086566
-0.007878 0.017175 -0.086794
-0.009530 0.016153 -0.087124
-0.010751 0.015919 -0.087295
-0.012232 0.015227 -0.087560
-0.093048 0.013933 -0.097693
-0.093685 0.014830 -0.097663
-0.094482 0.015511 -0.097681
-0.095408 0.016021 -0.097739
-0.096442 0.016389 -0.097831
-0.097541 0.016674 -0.097941
-0.098709 0.016872 -0.098073
-0.100376 0.016421 -0.098354
-0.101955 0.016095 -0.098608
0.029820 0.003314 -0.091565
0.029210 0.004254 -0.091478
0.028237 0.004386 -0.091559
0.028695 0.007667 -0.090984
0.028134 0.008688 -0.090880
0.027830 0.010264 -0.090660
0.027220 0.011163 -0.090581
0.026559 0.011947 -0.090526
0.025897 0.012726 -0.090473
0.025372 0.013793 -0.090359
0.024726 0.014597 -0.090301
0.024027 0.015283 -0.090267
0.023322 0.015956 -0.090237
0.022642 0.016677 -0.090196
0.021888 0.017241 -0.090189
0.021135 0.017805 -0.090182
0.020382 0.018369 -0.090176
0.019698 0.019072 -0.090140
0.018946 0.019633 -0.090135
0.018153 0.020110 -0.090148
0.017346 0.020557 -0.090167
0.016539 0.021004 -0.090187
0.015744 0.021475 -0.090202
0.014937 0.021922 -0.090222
0.013806 0.021726 -0.090380
0.012369 0.020933 -0.090667
0.008439 0.015265 -0.092002
0.007452 0.015396 -0.092094
0.006463 0.015528 -0.092186
0.005473 0.015661 -0.092278
0.004326 0.015494 -0.092436
0.003332 0.015626 -0.092530
0.002336 0.015759 -0.092624
0.001340 0.015892 -0.092719
0.000342 0.016025 -0.092814
-0.000818 0.015858 -0.092975
-0.001819 0.015991 -0.093071
-0.002823 0.016125 -0.093168
-0.003815 0.016282 -0.093260
-0.004831 0.016397 -0.093362
-0.005690 0.016804 -0.093401
-0.006485 0.017330 -0.093414
-0.007175 0.018044 -0.093386
-0.007553 0.019321 -0.093235
-0.008562 0.019455 -0.093334
-0.101409 0.014719 -0.106278
-0.102125 0.015520 -0.106270
-0.102969 0.016154 -0.106304
-0.103902 0.016674 -0.106366
-0.105027 0.016947 -0.106491
-0.106169 0.017202 -0.106621
-0.107388 0.017362 -0.106776
-0.109229 0.016737 -0.107128
-0.111211 0.015944 -0.107524
0.035486 0.001690 -0.098004
0.035386 0.003816 -0.097643
0.034394 0.003885 -0.097739
0.034922 0.007412 -0.097067
0.034355 0.008428 -0.096952
0.033789 0.009442 -0.096838
0.033374 0.010786 -0.096650
0.032721 0.011591 -0.096583
0.032069 0.012395 -0.096516
0.031419 0.013197 -0.096449
0.030756 0.013968 -0.096390
0.030164 0.014887 -0.096297
0.029459 0.015556 -0.096261
0.028735 0.016183 -0.096235
0.027982 0.016745 -0.096223
0.027295 0.017445 -0.096181
0.026543 0.018005 -0.096170
0.025791 0.018564 -0.096160
0.025040 0.019122 -0.096150
0.024267 0.019631 -0.096152
0.023463 0.020076 -0.096169
0.022659 0.020521 -0.096186
0.021837 0.020927 -0.096212
0.021001 0.021306 -0.096244
0.020202 0.021760 -0.096260
0.019407 0.022222 -0.096275
0.018600 0.022659 -0.096295
0.017772 0.023053 -0.096326
0.016737 0.023033 -0.096452
0.015774 0.023161 -0.096545
0.014810 0.023290 -0.096638
0.013845 0.023419 -0.096731
0.012730 0.023256 -0.096893
0.011761 0.023385 -0.096987
0.010791 0.023514 -0.097082
0.009820 0.023644 -0.097178
0.008181 0.022492 -0.097571
0.006910 0.022059 -0.097799
0.005456 0.021285 -0.098106
0.003852 0.020238 -0.098478
0.000558 0.016013 -0.099592
-0.000601 0.015846 -0.099762
-0.001602 0.015979 -0.099864
-0.002605 0.016113 -0.099966
-0.003609 0.016247 -0.100068
-0.004779 0.016080 -0.100241
-0.005787 0.016214 -0.100345
-0.006797 0.016348 -0.100449
-0.109856 0.015588 -0.115049
-0.110642 0.016311 -0.115064
-0.111544 0.016887 -0.115119
-0.112743 0.017091 -0.115274
-0.113832 0.017437 -0.115392
-0.114967 0.017727 -0.115526
-0.116182 0.017922 -0.115687
-0.117967 0.017416 -0.116039
-0.119738 0.016938 -0.116386
0.028795 -0.009411 -0.107652
0.028949 -0.006663 -0.107120
0.029099 -0.003947 -0.106595
0.029247 -0.001261 -0.106075
0.030384 0.003616 -0.105033
0.030526 0.006230 -0.104529
0.030667 0.008818 -0.104030
0.030807 0.011380 -0.103536
0.030945 0.013916 -0.103049
0.031891 0.018194 -0.102142
0.031113 0.018689 -0.102142
0.030320 0.019149 -0.102151
0.029527 0.019609 -0.102161
0.028753 0.020110 -0.102161
0.027961 0.020569 -0.102171
0.027169 0.021029 -0.102182
0.026356 0.021445 -0.102203
0.025520 0.021810 -0.102237
0.024696 0.022202 -0.102265
0.023872 0.022594 -0.102294
0.022973 0.022833 -0.102360
0.021879 0.022670 -0.102524
0.020924 0.022798 -0.102619
0.019967 0.022926 -0.102713
0.019010 0.023054 -0.102809
0.018051 0.023183 -0.102905
0.016945 0.023020 -0.103073
0.015983 0.023148 -0.103170
0.015019 0.023277 -0.103267
0.014229 0.023751 -0.103280
0.013957 0.025243 -0.103043
0.012994 0.025371 -0.103142
0.012029 0.025500 -0.103241
0.011062 0.025629 -0.103341
0.009828 0.025245 -0.103569
0.008791 0.025247 -0.103701
0.006955 0.023727 -0.104212
0.005978 0.023857 -0.104315
0.004999 0.023988 -0.104418
0.003862 0.023824 -0.104595
0.002880 0.023955 -0.104700
0.001715 0.023748 -0.104889
0.000417 0.023300 -0.105139
-0.001541 0.021641 -0.105694
-0.003180 0.020590 -0.106098
-0.006577 0.016334 -0.107308
-0.007588 0.016469 -0.107418
-0.008767 0.016302 -0.107604
-0.118876 0.015941 -0.124191
-0.119633 0.016715 -0.124195
-0.120514 0.017337 -0.124244
-0.121487 0.017846 -0.124326
-0.122687 0.018081 -0.124489
-0.123890 0.018315 -0.124653
-0.125189 0.018437 -0.124851
-0.127304 0.017582 -0.125338
0.027244 -0.003910 -0.113766
0.026757 -0.002658 -0.113576
0.026053 -0.001897 -0.113510
0.025252 -0.001352 -0.113501
0.024412 -0.000897 -0.113514
0.023438 -0.000733 -0.113603
0.022437 -0.000628 -0.113707
0.022071 0.000856 -0.113458
