-0.061098 -0.053905 -0.050684
-0.060121 -0.053747 -0.050680
-0.059067 -0.053746 -0.050658
-0.058093 -0.053589 -0.050654
-0.057120 -0.053433 -0.050650
-0.056167 -0.053238 -0.050651
-0.055192 -0.053090 -0.050647
-0.054259 -0.052861 -0.050652
-0.053326 -0.052631 -0.050658
-0.052399 -0.052394 -0.050665
-0.051444 -0.052214 -0.050665
-0.050522 -0.051969 -0.050673
-0.049601 -0.051725 -0.050681
-0.048712 -0.051412 -0.050698
-0.048016 -0.050698 -0.050762
-0.047223 -0.050185 -0.050802
-0.046638 -0.049231 -0.050894
-0.046116 -0.048135 -0.051003
-0.046229 -0.045675 -0.051271
-0.045837 -0.044280 -0.051415
-0.045444 -0.042877 -0.051560
-0.045211 -0.041115 -0.051747
-0.044990 -0.039314 -0.051939
-0.045454 -0.035994 -0.052307
-0.045231 -0.034157 -0.052503
-0.045008 -0.032308 -0.052701
-0.044783 -0.030447 -0.052899
-0.045255 -0.027009 -0.053282
-0.045030 -0.025111 -0.053485
-0.044803 -0.023199 -0.053690
-0.044575 -0.021274 -0.053897
-0.045055 -0.017712 -0.054294
-0.044826 -0.015746 -0.054506
-0.044596 -0.013767 -0.054719
-0.044365 -0.011774 -0.054934
-0.044852 -0.008083 -0.055346
-0.044619 -0.006051 -0.055566
-0.044384 -0.004003 -0.055787
-0.044148 -0.001941 -0.056010
-0.044645 0.001890 -0.056439
-0.044408 0.003997 -0.056667
-0.044170 0.006119 -0.056898
-0.043930 0.008256 -0.057130
-0.044435 0.012234 -0.057576
-0.044194 0.014418 -0.057814
-0.043951 0.016619 -0.058054
-0.043706 0.018834 -0.058296
-0.043460 0.021067 -0.058540
-0.044148 0.025668 -0.059058
-0.069518 -0.054525 -0.057461
-0.068078 -0.055219 -0.057337
-0.067064 -0.055115 -0.057319
-0.065940 -0.055224 -0.057274
-0.064928 -0.055121 -0.057257
-0.063919 -0.055018 -0.057240
-0.062911 -0.054916 -0.057223
-0.061796 -0.055025 -0.057179
-0.060791 -0.054924 -0.057163
-0.059788 -0.054822 -0.057147
-0.058679 -0.054932 -0.057103
-0.057680 -0.054831 -0.057088
-0.056678 -0.054736 -0.057072
-0.055688 -0.054623 -0.057059
-0.054629 -0.054651 -0.057027
-0.053656 -0.054508 -0.057018
-0.052691 -0.054353 -0.057012
-0.051727 -0.054198 -0.057005
-0.050832 -0.053905 -0.057017
-0.049966 -0.053552 -0.057037
-0.049101 -0.053198 -0.057057
-0.048297 -0.052715 -0.057095
-0.048082 -0.051002 -0.057296
-0.047528 -0.049985 -0.057404
-0.047188 -0.048513 -0.057573
-0.046974 -0.046759 -0.057779
-0.047444 -0.043531 -0.058180
-0.047230 -0.041743 -0.058391
-0.047014 -0.039944 -0.058603
-0.046798 -0.038132 -0.058817
-0.046580 -0.036309 -0.059033
-0.047058 -0.032945 -0.059451
-0.046840 -0.031085 -0.059672
-0.046621 -0.029213 -0.059894
-0.046400 -0.027328 -0.060118
-0.045938 -0.025968 -0.060273
-0.044991 -0.025688 -0.060286
-0.044044 -0.025409 -0.060300
-0.043099 -0.025130 -0.060313
-0.042134 -0.024896 -0.060321
-0.041189 -0.024617 -0.060335
-0.040244 -0.024338 -0.060350
-0.039300 -0.024060 -0.060364
-0.038338 -0.023826 -0.060373
-0.037395 -0.023548 -0.060388
-0.036452 -0.023270 -0.060403
-0.035510 -0.022992 -0.060419
-0.034636 -0.022553 -0.060456
-0.033743 -0.022158 -0.060487
-0.032850 -0.021763 -0.060518
-0.031956 -0.021368 -0.060550
-0.031093 -0.020901 -0.060591
-0.030200 -0.020505 -0.060624
-0.029306 -0.020110 -0.060656
-0.028412 -0.019715 -0.060689
-0.027518 -0.019320 -0.060722
-0.026654 -0.018852 -0.060764
-0.025759 -0.018456 -0.060798
-0.024865 -0.018061 -0.060831
-0.023970 -0.017665 -0.060865
-0.023105 -0.017194 -0.060909
-0.022304 -0.016557 -0.060975
-0.021501 -0.015918 -0.061041
-0.020698 -0.015278 -0.061108
-0.020015 -0.014320 -0.061216
-0.019209 -0.013678 -0.061283
-0.018402 -0.013035 -0.061351
-0.017595 -0.012392 -0.061419
-0.016905 -0.011426 -0.061529
-0.016466 -0.009774 -0.061728
-0.016458 -0.006933 -0.062082
-0.070397 -0.055299 -0.064066
-0.069309 -0.055328 -0.064023
-0.068292 -0.055224 -0.064000
-0.067277 -0.055120 -0.063978
-0.066153 -0.055229 -0.063924
-0.065141 -0.055126 -0.063901
-0.064131 -0.055023 -0.063880
-0.063120 -0.054927 -0.063857
-0.062004 -0.055037 -0.063804
-0.060999 -0.054935 -0.063783
-0.059996 -0.054833 -0.063762
-0.058887 -0.054943 -0.063710
-0.057887 -0.054842 -0.063690
-0.056889 -0.054741 -0.063670
-0.055892 -0.054641 -0.063650
-0.054791 -0.054751 -0.063600
-0.053798 -0.054651 -0.063581
-0.052850 -0.054460 -0.063575
-0.052002 -0.054069 -0.063599
-0.051193 -0.053596 -0.063636
-0.050368 -0.053158 -0.063668
-0.049784 -0.052219 -0.063774
-0.049233 -0.051205 -0.063891
-0.049185 -0.049135 -0.064164
-0.048977 -0.047383 -0.064391
-0.048768 -0.045620 -0.064619
-0.048558 -0.043845 -0.064848
-0.049041 -0.040576 -0.065298
-0.048831 -0.038766 -0.065533
-0.048620 -0.036944 -0.065770
-0.048407 -0.035109 -0.066008
-0.048194 -0.033262 -0.066249
-0.048022 -0.031310 -0.066505
-0.047055 -0.031092 -0.066506
-0.046088 -0.030873 -0.066508
-0.045123 -0.030655 -0.066510
-0.044112 -0.030541 -0.066498
-0.043148 -0.030323 -0.066500
-0.042185 -0.030106 -0.066503
-0.041222 -0.029889 -0.066506
-0.040216 -0.029775 -0.066495
-0.039255 -0.029558 -0.066498
-0.038295 -0.029342 -0.066502
-0.037335 -0.029126 -0.066507
-0.036333 -0.029012 -0.066496
-0.035375 -0.028797 -0.066501
-0.034418 -0.028581 -0.066506
-0.033461 -0.028366 -0.066511
-0.032462 -0.028253 -0.066501
-0.031507 -0.028038 -0.066507
-0.030553 -0.027823 -0.066513
-0.029599 -0.027609 -0.066519
-0.028604 -0.027497 -0.066510
-0.027652 -0.027283 -0.066517
-0.026711 -0.027042 -0.066528
-0.025784 -0.026768 -0.066543
-0.024857 -0.026494 -0.066560
-0.023913 -0.026265 -0.066570
-0.022987 -0.025991 -0.066586
-0.022062 -0.025718 -0.066603
-0.021136 -0.025445 -0.066620
-0.020194 -0.025215 -0.066631
-0.019270 -0.024942 -0.066649
-0.018345 -0.024669 -0.066666
-0.017421 -0.024396 -0.066685
-0.016481 -0.024167 -0.066697
-0.015558 -0.023895 -0.066715
-0.014634 -0.023622 -0.066734
-0.013711 -0.023350 -0.066753
-0.012773 -0.023121 -0.066766
-0.011850 -0.022849 -0.066786
-0.010928 -0.022577 -0.066805
-0.010006 -0.022305 -0.066825
-0.009084 -0.022033 -0.066846
-0.008155 -0.021783 -0.066863
-0.007275 -0.021396 -0.066901
-0.006395 -0.021009 -0.066938
-0.005515 -0.020621 -0.066976
-0.004659 -0.020162 -0.067025
-0.003778 -0.019774 -0.067064
-0.002897 -0.019386 -0.067103
-0.002015 -0.018998 -0.067142
-0.001158 -0.018537 -0.067191
-0.000276 -0.018149 -0.067231
0.000607 -0.017761 -0.067271
0.001489 -0.017372 -0.067311
0.002373 -0.016983 -0.067352
0.003232 -0.016522 -0.067403
0.004116 -0.016133 -0.067444
0.004989 -0.015709 -0.067490
0.005796 -0.015081 -0.067566
0.006503 -0.014138 -0.067687
0.007313 -0.013508 -0.067764
0.008124 -0.012876 -0.067841
0.008936 -0.012243 -0.067919
0.009650 -0.011294 -0.068042
0.010465 -0.010659 -0.068121
0.011281 -0.010023 -0.068199
0.011813 -0.008460 -0.068412
-0.073414 -0.054107 -0.071060
-0.071889 -0.054933 -0.070877
-0.070543 -0.055435 -0.070748
-0.069524 -0.055331 -0.070719
-0.068508 -0.055228 -0.070691
-0.067489 -0.055130 -0.070662
-0.066364 -0.055239 -0.070599
-0.065353 -0.055136 -0.070572
-0.064342 -0.055033 -0.070545
-0.063334 -0.054931 -0.070518
-0.062218 -0.055040 -0.070457
-0.061213 -0.054938 -0.070431
-0.060209 -0.054837 -0.070405
-0.059100 -0.054946 -0.070345
-0.058099 -0.054845 -0.070320
-0.057101 -0.054744 -0.070295
-0.056103 -0.054644 -0.070270
-0.055002 -0.054754 -0.070211
-0.054115 -0.054440 -0.070222
-0.053265 -0.054048 -0.070246
-0.052416 -0.053656 -0.070271
-0.051827 -0.052732 -0.070382
-0.051279 -0.051718 -0.070508
-0.050738 -0.050684 -0.070638
-0.050292 -0.049445 -0.070801
-0.050781 -0.046245 -0.071283
-0.050577 -0.044471 -0.071533
-0.050372 -0.042686 -0.071785
-0.050165 -0.040889 -0.072039
-0.050663 -0.037578 -0.072540
-0.050456 -0.035746 -0.072799
-0.050185 -0.034037 -0.073039
-0.049180 -0.033907 -0.073023
-0.048194 -0.033736 -0.073013
-0.047141 -0.033716 -0.072980
-0.046157 -0.033545 -0.072972
-0.045174 -0.033376 -0.072963
-0.044193 -0.033206 -0.072955
-0.043145 -0.033186 -0.072923
-0.042166 -0.033017 -0.072915
-0.041187 -0.032848 -0.072908
-0.040210 -0.032680 -0.072901
-0.039168 -0.032660 -0.072870
-0.038192 -0.032492 -0.072864
-0.037218 -0.032324 -0.072858
-0.036244 -0.032156 -0.072852
-0.035207 -0.032138 -0.072822
-0.034236 -0.031970 -0.072817
-0.033265 -0.031803 -0.072812
-0.032296 -0.031636 -0.072807
-0.031264 -0.031619 -0.072778
-0.030296 -0.031452 -0.072774
-0.029330 -0.031285 -0.072770
-0.028364 -0.031119 -0.072767
-0.027337 -0.031102 -0.072739
-0.026373 -0.030936 -0.072736
-0.025410 -0.030771 -0.072733
-0.024448 -0.030605 -0.072731
-0.023486 -0.030440 -0.072729
-0.022498 -0.030343 -0.072716
-0.021557 -0.030130 -0.072722
-0.020616 -0.029918 -0.072728
-0.019676 -0.029705 -0.072734
-0.018698 -0.029595 -0.072725
-0.017759 -0.029383 -0.072732
-0.016821 -0.029171 -0.072739
-0.015883 -0.028959 -0.072747
-0.014908 -0.028849 -0.072738
-0.013971 -0.028637 -0.072747
-0.013192 -0.028011 -0.072821
-0.012256 -0.027800 -0.072830
-0.011282 -0.027691 -0.072822
-0.010347 -0.027480 -0.072832
-0.009412 -0.027269 -0.072841
-0.008478 -0.027058 -0.072851
-0.007545 -0.026847 -0.072861
-0.006575 -0.026739 -0.072855
-0.005642 -0.026528 -0.072866
-0.004710 -0.026318 -0.072876
-0.003779 -0.026108 -0.072888
-0.002832 -0.025943 -0.072892
-0.001922 -0.025674 -0.072913
-0.001012 -0.025405 -0.072934
-0.000102 -0.025136 -0.072956
0.000822 -0.024911 -0.072971
0.001732 -0.024642 -0.072993
0.002641 -0.024373 -0.073015
0.003550 -0.024105 -0.073038
0.004459 -0.023836 -0.073061
0.005382 -0.023611 -0.073077
0.006290 -0.023342 -0.073101
0.007407 -0.023709 -0.073024
0.008315 -0.023441 -0.073048
0.009236 -0.023216 -0.073065
0.010142 -0.022948 -0.073090
0.011049 -0.022679 -0.073115
0.011956 -0.022411 -0.073140
0.012876 -0.022186 -0.073158
0.013783 -0.021918 -0.073184
0.014689 -0.021650 -0.073210
0.015596 -0.021383 -0.073236
0.016515 -0.021158 -0.073256
0.017421 -0.020890 -0.073283
0.018328 -0.020622 -0.073310
0.019213 -0.020285 -0.073348
0.020085 -0.019903 -0.073394
0.020937 -0.019450 -0.073451
0.021811 -0.019067 -0.073497
0.022684 -0.018685 -0.073544
0.023559 -0.018302 -0.073591
0.024413 -0.017848 -0.073649
0.025288 -0.017465 -0.073696
0.026164 -0.017081 -0.073744
0.027040 -0.016698 -0.073792
0.027897 -0.016243 -0.073852
0.028775 -0.015859 -0.073901
0.029652 -0.015474 -0.073950
0.030531 -0.015090 -0.073999
0.031372 -0.014567 -0.074070
0.032189 -0.013946 -0.074157
0.033007 -0.013325 -0.074245
0.033826 -0.012702 -0.074333
0.034565 -0.011768 -0.074470
0.035387 -0.011143 -0.074559
0.036210 -0.010517 -0.074648
0.037036 -0.009890 -0.074738
0.037782 -0.008949 -0.074877
0.038397 -0.007471 -0.075101
0.038698 -0.004715 -0.075527
-0.074298 -0.054883 -0.077739
-0.072917 -0.055435 -0.077585
-0.071895 -0.055330 -0.077551
-0.070760 -0.055438 -0.077478
-0.069738 -0.055340 -0.077443
-0.068721 -0.055236 -0.077409
-0.067706 -0.055133 -0.077376
-0.066581 -0.055241 -0.077305
-0.065569 -0.055138 -0.077273
-0.064558 -0.055036 -0.077240
-0.063549 -0.054933 -0.077208
-0.062433 -0.055042 -0.077139
-0.061427 -0.054941 -0.077108
-0.060423 -0.054839 -0.077077
-0.059314 -0.054949 -0.077008
-0.058313 -0.054848 -0.076978
-0.057314 -0.054747 -0.076948
-0.056316 -0.054646 -0.076919
-0.055384 -0.054417 -0.076913
-0.054534 -0.054025 -0.076936
-0.053728 -0.053542 -0.076976
-0.052984 -0.052934 -0.077038
-0.052807 -0.051164 -0.077309
-0.052340 -0.049974 -0.077475
-0.052097 -0.048316 -0.077726
-0.051897 -0.046555 -0.077995
-0.052400 -0.043314 -0.078527
-0.052200 -0.041518 -0.078802
-0.051999 -0.039710 -0.079079
-0.051797 -0.037891 -0.079358
-0.052118 -0.034941 -0.079838
-0.051085 -0.034868 -0.079807
-0.050052 -0.034795 -0.079776
-0.049022 -0.034721 -0.079746
-0.048007 -0.034617 -0.079722
-0.046917 -0.034682 -0.079668
-0.045915 -0.034555 -0.079648
-0.044915 -0.034428 -0.079628
-0.043917 -0.034302 -0.079609
-0.042833 -0.034367 -0.079557
-0.041837 -0.034241 -0.079538
-0.040842 -0.034115 -0.079520
-0.039848 -0.033990 -0.079502
-0.038771 -0.034056 -0.079451
-0.037780 -0.033930 -0.079434
-0.036790 -0.033805 -0.079417
-0.035801 -0.033681 -0.079400
-0.034731 -0.033747 -0.079350
-0.033745 -0.033623 -0.079335
-0.032760 -0.033498 -0.079319
-0.031775 -0.033374 -0.079304
-0.030748 -0.033356 -0.079270
-0.029766 -0.033232 -0.079256
-0.028785 -0.033109 -0.079241
-0.027805 -0.032985 -0.079227
-0.026748 -0.033053 -0.079180
-0.025779 -0.032911 -0.079170
-0.024820 -0.032745 -0.079165
-0.023861 -0.032580 -0.079160
-0.022904 -0.032415 -0.079155
-0.021888 -0.032397 -0.079124
-0.020933 -0.032232 -0.079120
-0.019978 -0.032067 -0.079116
-0.019024 -0.031903 -0.079112
-0.018013 -0.031886 -0.079083
-0.017061 -0.031721 -0.079080
-0.016110 -0.031557 -0.079077
-0.015159 -0.031393 -0.079075
-0.014153 -0.031377 -0.079047
-0.013204 -0.031213 -0.079045
-0.012256 -0.031050 -0.079043
-0.011308 -0.030886 -0.079042
-0.010306 -0.030870 -0.079015
-0.009360 -0.030707 -0.079015
-0.008415 -0.030544 -0.079014
-0.007471 -0.030381 -0.079014
-0.006527 -0.030219 -0.079015
-0.005530 -0.030203 -0.078989
-0.004588 -0.030041 -0.078990
-0.003647 -0.029878 -0.078991
-0.002706 -0.029716 -0.078993
-0.001713 -0.029701 -0.078969
-0.000774 -0.029539 -0.078971
0.000155 -0.029348 -0.078979
0.001077 -0.029139 -0.078989
0.002033 -0.029031 -0.078983
0.002954 -0.028822 -0.078995
0.003874 -0.028613 -0.079006
0.004795 -0.028405 -0.079018
0.005714 -0.028196 -0.079031
0.006667 -0.028088 -0.079026
0.007586 -0.027880 -0.079039
0.008505 -0.027672 -0.079052
0.009423 -0.027464 -0.079066
0.010374 -0.027356 -0.079062
0.011291 -0.027148 -0.079076
0.012208 -0.026940 -0.079091
0.013125 -0.026732 -0.079105
0.014073 -0.026625 -0.079103
0.014989 -0.026417 -0.079118
0.015905 -0.026210 -0.079134
0.016820 -0.026002 -0.079150
0.017767 -0.025895 -0.079148
0.018681 -0.025688 -0.079165
0.019596 -0.025480 -0.079182
0.020510 -0.025273 -0.079199
0.021424 -0.025066 -0.079216
0.022367 -0.024959 -0.079216
0.023267 -0.024707 -0.079242
0.024164 -0.024441 -0.079270
0.025060 -0.024176 -0.079299
0.026148 -0.024578 -0.079213
0.027043 -0.024313 -0.079242
0.027938 -0.024048 -0.079272
0.028833 -0.023782 -0.079301
0.029740 -0.023560 -0.079324
0.030635 -0.023295 -0.079355
0.031530 -0.023029 -0.079385
0.032425 -0.022764 -0.079416
0.033332 -0.022541 -0.079440
0.034227 -0.022276 -0.079472
0.035123 -0.022011 -0.079504
0.036018 -0.021745 -0.079536
0.036925 -0.021523 -0.079561
0.037820 -0.021257 -0.079594
0.038716 -0.020992 -0.079627
0.039612 -0.020726 -0.079660
0.040519 -0.020503 -0.079687
0.041415 -0.020238 -0.079721
0.042311 -0.019972 -0.079755
0.043207 -0.019706 -0.079790
0.044104 -0.019441 -0.079825
0.044983 -0.019102 -0.079873
0.045852 -0.018723 -0.079928
0.046723 -0.018344 -0.079983
0.047594 -0.017965 -0.080039
0.048449 -0.017516 -0.080106
0.049321 -0.017137 -0.080163
0.050194 -0.016757 -0.080219
0.051068 -0.016377 -0.080276
0.051926 -0.015926 -0.080346
0.052801 -0.015546 -0.080403
0.053677 -0.015165 -0.080461
0.054554 -0.014784 -0.080520
0.055415 -0.014332 -0.080590
0.056293 -0.013950 -0.080649
0.057172 -0.013568 -0.080709
0.058031 -0.013089 -0.080785
0.058797 -0.012168 -0.080937
0.059631 -0.011551 -0.081038
0.060465 -0.010933 -0.081139
0.061239 -0.010007 -0.081293
0.062077 -0.009387 -0.081395
0.062917 -0.008765 -0.081497
0.063758 -0.008142 -0.081600
0.064388 -0.006436 -0.081889
0.064827 -0.003715 -0.082353
0.066866 -0.004205 -0.082263
-0.075289 -0.055461 -0.084480
-0.074075 -0.055701 -0.084371
-0.073051 -0.055596 -0.084331
-0.072029 -0.055492 -0.084291
-0.070894 -0.055599 -0.084209
-0.069876 -0.055495 -0.084170
-0.068859 -0.055391 -0.084131
-0.067843 -0.055288 -0.084093
-0.066718 -0.055396 -0.084013
-0.065706 -0.055293 -0.083975
-0.064695 -0.055191 -0.083938
-0.063687 -0.055088 -0.083901
-0.062570 -0.055197 -0.083823
-0.061565 -0.055095 -0.083786
-0.060561 -0.054994 -0.083751
-0.059451 -0.055103 -0.083674
-0.058451 -0.055002 -0.083639
-0.057452 -0.054901 -0.083604
-0.056517 -0.054676 -0.083594
-0.055747 -0.054120 -0.083648
-0.054960 -0.053600 -0.083696
-0.054332 -0.052756 -0.083807
-0.053807 -0.051697 -0.083960
-0.053877 -0.049414 -0.084351
-0.053683 -0.047658 -0.084640
-0.053488 -0.045890 -0.084931
-0.053292 -0.044110 -0.085224
-0.053807 -0.040832 -0.085807
-0.053611 -0.039017 -0.086107
-0.053413 -0.037192 -0.086408
-0.053214 -0.035354 -0.086713
-0.052588 -0.034412 -0.086844
-0.051552 -0.034338 -0.086807
-0.050518 -0.034265 -0.086772
-0.049486 -0.034192 -0.086736
-0.048455 -0.034120 -0.086701
-0.047313 -0.034294 -0.086618
-0.046286 -0.034222 -0.086584
-0.045260 -0.034150 -0.086550
-0.044235 -0.034078 -0.086516
-0.043102 -0.034252 -0.086436
-0.042081 -0.034180 -0.086403
-0.041062 -0.034109 -0.086370
-0.040043 -0.034038 -0.086338
-0.038919 -0.034212 -0.086259
-0.037904 -0.034141 -0.086228
-0.036891 -0.034070 -0.086197
-0.035879 -0.034000 -0.086166
-0.034763 -0.034174 -0.086089
-0.033754 -0.034104 -0.086059
-0.032747 -0.034033 -0.086029
-0.031741 -0.033963 -0.086000
-0.030633 -0.034138 -0.085924
-0.029630 -0.034068 -0.085896
-0.028629 -0.033998 -0.085868
-0.027649 -0.033879 -0.085850
-0.026594 -0.033946 -0.085796
-0.025618 -0.033823 -0.085779
-0.024644 -0.033700 -0.085763
-0.023670 -0.033577 -0.085747
-0.022697 -0.033455 -0.085731
-0.021650 -0.033522 -0.085680
-0.020680 -0.033399 -0.085665
-0.019711 -0.033277 -0.085650
-0.018742 -0.033155 -0.085636
-0.017701 -0.033223 -0.085586
-0.016735 -0.033101 -0.085572
-0.015770 -0.032980 -0.085559
-0.014806 -0.032858 -0.085546
-0.013771 -0.032926 -0.085497
-0.012809 -0.032805 -0.085485
-0.011848 -0.032684 -0.085473
-0.010888 -0.032563 -0.085461
-0.009858 -0.032631 -0.085414
-0.008900 -0.032510 -0.085403
-0.007943 -0.032390 -0.085392
-0.006987 -0.032270 -0.085382
-0.006032 -0.032149 -0.085372
-0.005009 -0.032218 -0.085327
-0.004055 -0.032098 -0.085318
-0.003103 -0.031978 -0.085309
-0.002164 -0.031823 -0.085307
-0.001176 -0.031807 -0.085279
-0.000241 -0.031645 -0.085279
0.000693 -0.031484 -0.085279
0.001627 -0.031322 -0.085280
0.002611 -0.031306 -0.085253
0.003543 -0.031145 -0.085255
0.004475 -0.030983 -0.085256
0.005406 -0.030822 -0.085258
0.006337 -0.030661 -0.085261
0.007315 -0.030646 -0.085236
0.008245 -0.030485 -0.085239
0.009173 -0.030324 -0.085242
0.010101 -0.030163 -0.085246
0.011076 -0.030148 -0.085222
0.012003 -0.029987 -0.085227
0.012930 -0.029826 -0.085231
0.013855 -0.029666 -0.085236
0.014827 -0.029651 -0.085214
0.015751 -0.029491 -0.085219
0.016675 -0.029331 -0.085225
0.017599 -0.029171 -0.085232
0.018567 -0.029156 -0.085211
0.019489 -0.028996 -0.085218
0.020411 -0.028836 -0.085225
0.021333 -0.028676 -0.085232
0.022254 -0.028516 -0.085240
0.023196 -0.028430 -0.085235
0.024102 -0.028223 -0.085252
0.025009 -0.028017 -0.085269
0.025914 -0.027811 -0.085287
0.026849 -0.027703 -0.085287
0.027754 -0.027497 -0.085305
0.028659 -0.027291 -0.085324
0.029564 -0.027085 -0.085343
0.030496 -0.026978 -0.085344
0.031401 -0.026772 -0.085364
0.032305 -0.026566 -0.085384
0.033209 -0.026360 -0.085405
0.034140 -0.026253 -0.085407
0.035043 -0.026047 -0.085428
0.035947 -0.025841 -0.085449
0.036850 -0.025635 -0.085471
0.037779 -0.025528 -0.085474
0.038682 -0.025322 -0.085497
0.039585 -0.025116 -0.085520
0.040488 -0.024910 -0.085543
0.041416 -0.024803 -0.085547
0.042318 -0.024597 -0.085571
0.043220 -0.024391 -0.085595
0.044122 -0.024185 -0.085619
0.045024 -0.023979 -0.085644
0.046049 -0.024278 -0.085575
0.046950 -0.024072 -0.085600
0.047851 -0.023866 -0.085626
0.048744 -0.023625 -0.085658
0.049641 -0.023403 -0.085687
0.050528 -0.023140 -0.085725
0.051416 -0.022876 -0.085762
0.052304 -0.022613 -0.085800
0.053202 -0.022391 -0.085831
0.054090 -0.022127 -0.085869
0.054978 -0.021863 -0.085908
0.055867 -0.021599 -0.085948
0.056765 -0.021377 -0.085980
0.057654 -0.021112 -0.086020
0.058544 -0.020848 -0.086060
0.059433 -0.020584 -0.086100
0.060332 -0.020361 -0.086134
0.061222 -0.020097 -0.086175
0.062113 -0.019832 -0.086217
0.063012 -0.019609 -0.086251
0.063903 -0.019345 -0.086293
0.064795 -0.019080 -0.086336
0.065573 -0.018248 -0.086484
0.066068 -0.015960 -0.086903
0.066762 -0.014656 -0.087139
0.067461 -0.013347 -0.087377
0.067762 -0.009937 -0.088005
0.067302 -0.002427 -0.089394
0.067527 0.001576 -0.090133
-0.076795 -0.055102 -0.091451
-0.075316 -0.055818 -0.091229
-0.074290 -0.055713 -0.091183
-0.073266 -0.055608 -0.091137
-0.072244 -0.055503 -0.091092
-0.071109 -0.055611 -0.091002
-0.070090 -0.055507 -0.090957
-0.069073 -0.055403 -0.090913
-0.068057 -0.055300 -0.090869
-0.066931 -0.055408 -0.090781
-0.065919 -0.055305 -0.090738
-0.064908 -0.055202 -0.090695
-0.063899 -0.055100 -0.090653
-0.062782 -0.055209 -0.090566
-0.061777 -0.055107 -0.090525
-0.060773 -0.055005 -0.090484
-0.059662 -0.055115 -0.090399
-0.058662 -0.055014 -0.090359
-0.057788 -0.054663 -0.090371
-0.056988 -0.054167 -0.090415
-0.056383 -0.053280 -0.090542
-0.055877 -0.052188 -0.090711
-0.055416 -0.051000 -0.090901
-0.054989 -0.049734 -0.091107
-0.055509 -0.046526 -0.091721
-0.055319 -0.044747 -0.092035
-0.055128 -0.042957 -0.092351
-0.054935 -0.041156 -0.092670
-0.055465 -0.037837 -0.093306
-0.055273 -0.035999 -0.093632
-0.055080 -0.034149 -0.093960
-0.054720 -0.032637 -0.094218
-0.054324 -0.031191 -0.094462
-0.053208 -0.031273 -0.094388
-0.052094 -0.031356 -0.094314
-0.050983 -0.031438 -0.094241
-0.049874 -0.031520 -0.094168
-0.048608 -0.031948 -0.094024
-0.047548 -0.031937 -0.093971
-0.046489 -0.031925 -0.093920
-0.045431 -0.031914 -0.093868
-0.044237 -0.032211 -0.093753
-0.043184 -0.032200 -0.093702
-0.042133 -0.032189 -0.093652
-0.041083 -0.032178 -0.093603
-0.039900 -0.032474 -0.093490
-0.038855 -0.032463 -0.093441
-0.037811 -0.032453 -0.093393
-0.036769 -0.032442 -0.093345
-0.035597 -0.032737 -0.093234
-0.034559 -0.032727 -0.093187
-0.033523 -0.032716 -0.093140
-0.032488 -0.032706 -0.093094
-0.031327 -0.033000 -0.092985
-0.030296 -0.032990 -0.092940
-0.029267 -0.032979 -0.092895
-0.028240 -0.032969 -0.092851
-0.027103 -0.033228 -0.092751
-0.026103 -0.033159 -0.092720
-0.025105 -0.033090 -0.092689
-0.024108 -0.033021 -0.092658
-0.023112 -0.032952 -0.092628
-0.022020 -0.033128 -0.092548
-0.021027 -0.033059 -0.092518
-0.020036 -0.032991 -0.092489
-0.019045 -0.032923 -0.092460
-0.017961 -0.033098 -0.092382
-0.016974 -0.033030 -0.092354
-0.015987 -0.032962 -0.092326
-0.015002 -0.032894 -0.092299
-0.013926 -0.033069 -0.092223
-0.012944 -0.033002 -0.092196
-0.011963 -0.032934 -0.092170
-0.010983 -0.032867 -0.092145
-0.009914 -0.033041 -0.092070
-0.008937 -0.032974 -0.092045
-0.007961 -0.032907 -0.092021
-0.006986 -0.032839 -0.091997
-0.006012 -0.032772 -0.091973
-0.004952 -0.032947 -0.091901
-0.003981 -0.032880 -0.091878
-0.003015 -0.032802 -0.091857
-0.002065 -0.032682 -0.091846
-0.001049 -0.032750 -0.091797
-0.000101 -0.032630 -0.091786
0.000846 -0.032511 -0.091776
0.001792 -0.032391 -0.091766
0.002802 -0.032459 -0.091718
0.003747 -0.032340 -0.091709
0.004691 -0.032220 -0.091700
0.005633 -0.032101 -0.091692
0.006576 -0.031982 -0.091684
0.007580 -0.032050 -0.091638
0.008520 -0.031931 -0.091631
0.009460 -0.031812 -0.091624
0.010398 -0.031693 -0.091617
0.011397 -0.031761 -0.091573
0.012335 -0.031643 -0.091567
0.013271 -0.031524 -0.091561
0.014207 -0.031406 -0.091556
0.015201 -0.031474 -0.091514
0.016135 -0.031355 -0.091509
0.017068 -0.031237 -0.091505
0.018001 -0.031119 -0.091501
0.018990 -0.031187 -0.091460
0.019921 -0.031069 -0.091457
0.020852 -0.030950 -0.091454
0.021781 -0.030832 -0.091452
0.022703 -0.030689 -0.091455
0.023662 -0.030673 -0.091433
0.024577 -0.030513 -0.091440
0.025493 -0.030354 -0.091448
0.026407 -0.030194 -0.091455
0.027363 -0.030179 -0.091435
0.028277 -0.030019 -0.091443
0.029190 -0.029859 -0.091452
0.030103 -0.029700 -0.091461
0.031055 -0.029684 -0.091442
0.031967 -0.029525 -0.091452
0.032879 -0.029366 -0.091462
0.033790 -0.029206 -0.091473
0.034740 -0.029191 -0.091455
0.035650 -0.029032 -0.091466
0.036560 -0.028872 -0.091478
0.037469 -0.028713 -0.091490
0.038416 -0.028698 -0.091473
0.039325 -0.028538 -0.091486
0.040233 -0.028379 -0.091499
0.041141 -0.028220 -0.091513
0.042086 -0.028205 -0.091498
0.042993 -0.028045 -0.091512
0.043900 -0.027886 -0.091526
0.044806 -0.027727 -0.091541
0.045713 -0.027568 -0.091556
0.046654 -0.027552 -0.091543
0.047616 -0.027625 -0.091513
0.048521 -0.027466 -0.091529
0.049426 -0.027307 -0.091545
0.050351 -0.027235 -0.091545
0.051244 -0.027030 -0.091571
0.052138 -0.026825 -0.091598
0.053031 -0.026620 -0.091625
0.053946 -0.026512 -0.091633
0.054839 -0.026307 -0.091661
0.055733 -0.026101 -0.091690
0.056626 -0.025896 -0.091718
0.057540 -0.025788 -0.091728
0.058433 -0.025583 -0.091757
0.059326 -0.025377 -0.091787
0.060219 -0.025172 -0.091817
0.061133 -0.025064 -0.091828
0.062026 -0.024858 -0.091858
0.062919 -0.024652 -0.091890
0.063673 -0.023767 -0.092057
0.064436 -0.022917 -0.092218
0.065202 -0.022065 -0.092379
0.065970 -0.021211 -0.092541
0.065544 -0.014304 -0.093914
0.065750 -0.010481 -0.094670
0.065958 -0.006600 -0.095438
0.066171 -0.002659 -0.096218
0.065678 0.005081 -0.097759
0.065895 0.009205 -0.098576
-0.079529 -0.054512 -0.098618
-0.078096 -0.055126 -0.098399
-0.076968 -0.055196 -0.098306
-0.075615 -0.055681 -0.098119
-0.074562 -0.055624 -0.098056
-0.073511 -0.055569 -0.097993
-0.072461 -0.055513 -0.097931
-0.071326 -0.055622 -0.097831
-0.070306 -0.055518 -0.097781
-0.069289 -0.055414 -0.097732
-0.068273 -0.055310 -0.097683
-0.067147 -0.055419 -0.097586
-0.066134 -0.055316 -0.097537
-0.065123 -0.055213 -0.097490
-0.064114 -0.055110 -0.097442
-0.062997 -0.055219 -0.097347
-0.061991 -0.055117 -0.097301
-0.060986 -0.055016 -0.097254
-0.059917 -0.055044 -0.097179
-0.059128 -0.054525 -0.097229
-0.058339 -0.054003 -0.097279
-0.057550 -0.053482 -0.097330
-0.057495 -0.051490 -0.097713
-0.057036 -0.050297 -0.097916
-0.056816 -0.048612 -0.098230
-0.056630 -0.046846 -0.098562
-0.057164 -0.043597 -0.099228
-0.056978 -0.041796 -0.099568
-0.056792 -0.039983 -0.099911
-0.056604 -0.038158 -0.100256
-0.057149 -0.034795 -0.100947
-0.056961 -0.032934 -0.101300
-0.056772 -0.031061 -0.101655
-0.056415 -0.029530 -0.101934
-0.056969 -0.026051 -0.102650
-0.056779 -0.024129 -0.103016
-0.056588 -0.022195 -0.103386
-0.056396 -0.020247 -0.103758
-0.055187 -0.020486 -0.103641
-0.052449 -0.024065 -0.102778
-0.051233 -0.024351 -0.102652
-0.050022 -0.024635 -0.102527
-0.048813 -0.024919 -0.102403
-0.047336 -0.025810 -0.102144
-0.046136 -0.026091 -0.102021
-0.044940 -0.026373 -0.101899
-0.043748 -0.026653 -0.101778
-0.042294 -0.027533 -0.101524
-0.041111 -0.027811 -0.101405
-0.039983 -0.027968 -0.101313
-0.038888 -0.028055 -0.101237
-0.037620 -0.028548 -0.101072
-0.036531 -0.028634 -0.100997
-0.035443 -0.028720 -0.100923
-0.034358 -0.028806 -0.100850
-0.033105 -0.029295 -0.100687
-0.032026 -0.029381 -0.100615
-0.030948 -0.029466 -0.100543
-0.029873 -0.029551 -0.100472
-0.028634 -0.030038 -0.100312
-0.027564 -0.030122 -0.100242
-0.026495 -0.030207 -0.100172
-0.025429 -0.030291 -0.100103
-0.024365 -0.030376 -0.100034
-0.023170 -0.030793 -0.099893
-0.022148 -0.030784 -0.099846
-0.021127 -0.030776 -0.099799
-0.020108 -0.030768 -0.099753
-0.018971 -0.031064 -0.099640
-0.017955 -0.031056 -0.099594
-0.016941 -0.031047 -0.099549
-0.015928 -0.031039 -0.099505
-0.014801 -0.031335 -0.099394
-0.013792 -0.031326 -0.099350
-0.012785 -0.031318 -0.099307
-0.011779 -0.031310 -0.099265
-0.010661 -0.031604 -0.099156
-0.009659 -0.031596 -0.099114
-0.008658 -0.031587 -0.099073
-0.007658 -0.031579 -0.099032
-0.006660 -0.031571 -0.098991
-0.005554 -0.031864 -0.098886
-0.004559 -0.031855 -0.098846
-0.003565 -0.031847 -0.098807
-0.002573 -0.031839 -0.098768
-0.001503 -0.032055 -0.098681
-0.000535 -0.031988 -0.098656
0.000433 -0.031922 -0.098631
0.001399 -0.031856 -0.098607
0.002448 -0.032030 -0.098530
0.003412 -0.031964 -0.098507
0.004375 -0.031898 -0.098484
0.005337 -0.031832 -0.098461
0.006297 -0.031766 -0.098439
0.007338 -0.031940 -0.098365
0.008296 -0.031874 -0.098343
0.009254 -0.031809 -0.098322
0.010210 -0.031743 -0.098302
0.011244 -0.031917 -0.098229
0.012198 -0.031851 -0.098210
0.013151 -0.031785 -0.098190
0.014103 -0.031719 -0.098171
0.015130 -0.031892 -0.098101
0.016080 -0.031827 -0.098083
0.017029 -0.031761 -0.098065
0.017977 -0.031695 -0.098047
0.018998 -0.031868 -0.097979
0.019944 -0.031802 -0.097962
0.020889 -0.031736 -0.097946
0.021825 -0.031645 -0.097936
0.022753 -0.031527 -0.097932
0.023735 -0.031594 -0.097888
0.024661 -0.031476 -0.097885
0.025586 -0.031358 -0.097882
0.026511 -0.031240 -0.097879
0.027489 -0.031307 -0.097837
0.028412 -0.031189 -0.097836
0.029335 -0.031071 -0.097834
0.030257 -0.030954 -0.097833
0.031231 -0.031020 -0.097793
0.032152 -0.030903 -0.097793
0.033072 -0.030785 -0.097793
0.033991 -0.030667 -0.097793
0.034961 -0.030734 -0.097755
0.035879 -0.030616 -0.097756
0.036797 -0.030498 -0.097758
0.037714 -0.030380 -0.097760
0.038680 -0.030447 -0.097723
0.039596 -0.030329 -0.097726
0.040511 -0.030211 -0.097729
0.041426 -0.030093 -0.097732
0.042388 -0.030160 -0.097697
0.043302 -0.030042 -0.097701
0.044215 -0.029924 -0.097706
0.045128 -0.029806 -0.097711
0.046040 -0.029688 -0.097717
0.046983 -0.029696 -0.097696
0.047929 -0.029719 -0.097672
0.048839 -0.029601 -0.097679
0.049741 -0.029448 -0.097693
0.050675 -0.029431 -0.097679
0.051575 -0.029272 -0.097696
0.052474 -0.029113 -0.097713
0.053374 -0.028954 -0.097730
0.054305 -0.028937 -0.097718
0.055204 -0.028777 -0.097736
0.056103 -0.028618 -0.097754
0.057001 -0.028459 -0.097773
0.057930 -0.028441 -0.097762
0.058828 -0.028282 -0.097782
0.059726 -0.028122 -0.097802
0.060623 -0.027963 -0.097823
0.061546 -0.027921 -0.097818
0.062316 -0.027159 -0.097969
0.063088 -0.026396 -0.098120
0.063767 -0.025169 -0.098371
0.064056 -0.022008 -0.099037
0.064246 -0.018298 -0.099820
0.064439 -0.014532 -0.100616
0.063929 -0.007146 -0.102189
0.064125 -0.003208 -0.103022
0.064324 0.000790 -0.103868
0.064528 0.004850 -0.104728
-0.078597 -0.048635 -0.106663
-0.077134 -0.049304 -0.106415
-0.075679 -0.049971 -0.106168
-0.073443 -0.052098 -0.105566
-0.072258 -0.052289 -0.105437
-0.071083 -0.052463 -0.105314
-0.069930 -0.052603 -0.105199
-0.068540 -0.053199 -0.104974
-0.067394 -0.053338 -0.104861
-0.066252 -0.053477 -0.104749
-0.065112 -0.053616 -0.104637
-0.063885 -0.053929 -0.104484
-0.062849 -0.053879 -0.104419
-0.061816 -0.053826 -0.104356
-0.060848 -0.053650 -0.104323
-0.059879 -0.053478 -0.104290
-0.059356 -0.052425 -0.104470
-0.058887 -0.051260 -0.104678
-0.059000 -0.048923 -0.105169
-0.058658 -0.047481 -0.105444
-0.058477 -0.045705 -0.105799
-0.058295 -0.043917 -0.106158
-0.058845 -0.040625 -0.106879
-0.058663 -0.038802 -0.107245
-0.058480 -0.036967 -0.107615
-0.058297 -0.035119 -0.107987
-0.058858 -0.031711 -0.108735
-0.058674 -0.029826 -0.109115
-0.058490 -0.027929 -0.109499
-0.058305 -0.026018 -0.109886
-0.058877 -0.022487 -0.110662
-0.058692 -0.020537 -0.111058
-0.058333 -0.018946 -0.111369
-0.058146 -0.016972 -0.111770
-0.057959 -0.014983 -0.112176
-0.058543 -0.011298 -0.112987
-0.058355 -0.009268 -0.113402
-0.058165 -0.007226 -0.113819
-0.057975 -0.005168 -0.114241
-0.058570 -0.001347 -0.115083
-0.058380 0.000755 -0.115514
-0.058188 0.002873 -0.115950
-0.057996 0.005006 -0.116389
-0.030390 -0.018608 -0.109785
-0.028640 -0.020326 -0.109323
-0.026479 -0.023088 -0.108616
-0.025322 -0.023372 -0.108493
-0.024169 -0.023656 -0.108372
-0.023018 -0.023939 -0.108251
-0.021635 -0.024821 -0.107990
-0.020493 -0.025101 -0.107870
-0.019353 -0.025381 -0.107752
-0.018216 -0.025661 -0.107634
-0.016856 -0.026532 -0.107378
-0.015727 -0.026808 -0.107262
-0.014673 -0.026896 -0.107191
-0.013621 -0.026984 -0.107121
-0.012420 -0.027473 -0.106956
-0.011372 -0.027560 -0.106887
-0.010327 -0.027648 -0.106818
-0.009283 -0.027735 -0.106750
-0.008241 -0.027822 -0.106682
-0.007057 -0.028306 -0.106522
-0.006019 -0.028393 -0.106455
-0.004984 -0.028479 -0.106389
-0.003951 -0.028565 -0.106323
-0.002779 -0.029046 -0.106166
-0.001750 -0.029131 -0.106102
-0.000723 -0.029216 -0.106038
0.000302 -0.029301 -0.105974
0.001436 -0.029706 -0.105837
0.002426 -0.029699 -0.105796
0.003414 -0.029692 -0.105755
0.004401 -0.029685 -0.105715
0.005387 -0.029679 -0.105676
0.006472 -0.029972 -0.105567
0.007455 -0.029966 -0.105528
0.008436 -0.029958 -0.105490
0.009416 -0.029951 -0.105452
0.010493 -0.030244 -0.105345
0.011470 -0.030237 -0.105308
0.012445 -0.030229 -0.105272
0.013420 -0.030222 -0.105236
0.014488 -0.030513 -0.105131
0.015459 -0.030506 -0.105097
0.016430 -0.030498 -0.105062
0.017399 -0.030491 -0.105028
0.018459 -0.030780 -0.104926
0.019425 -0.030773 -0.104893
0.020390 -0.030765 -0.104860
0.021354 -0.030757 -0.104828
0.022316 -0.030748 -0.104797
0.023332 -0.030921 -0.104723
0.024275 -0.030856 -0.104706
0.025218 -0.030790 -0.104689
0.026159 -0.030725 -0.104672
0.027169 -0.030898 -0.104601
0.028109 -0.030832 -0.104585
0.029047 -0.030767 -0.104570
0.029985 -0.030701 -0.104555
0.030989 -0.030873 -0.104485
0.031925 -0.030808 -0.104471
0.032860 -0.030742 -0.104458
0.033794 -0.030677 -0.104444
0.034793 -0.030848 -0.104377
0.035725 -0.030783 -0.104365
0.036657 -0.030717 -0.104353
0.037587 -0.030651 -0.104341
0.038580 -0.030822 -0.104276
0.039509 -0.030756 -0.104265
0.040437 -0.030690 -0.104255
0.041365 -0.030624 -0.104245
0.042352 -0.030794 -0.104181
0.043278 -0.030728 -0.104172
0.044203 -0.030662 -0.104164
0.045102 -0.030495 -0.104179
0.046026 -0.030429 -0.104171
0.047008 -0.030598 -0.104110
0.047927 -0.030519 -0.104106
0.048836 -0.030401 -0.104111
0.049745 -0.030283 -0.104117
0.050697 -0.030348 -0.104082
0.051604 -0.030230 -0.104088
0.052511 -0.030112 -0.104095
0.053418 -0.029993 -0.104103
0.054367 -0.030058 -0.104069
0.055273 -0.029940 -0.104077
0.056178 -0.029821 -0.104086
0.057083 -0.029703 -0.104095
0.058028 -0.029767 -0.104063
0.058932 -0.029649 -0.104073
0.059836 -0.029530 -0.104083
0.060687 -0.029168 -0.104150
0.061373 -0.028025 -0.104396
0.062151 -0.027300 -0.104546
0.062789 -0.025895 -0.104852
0.062263 -0.018832 -0.106455
0.062440 -0.015070 -0.107301
0.062621 -0.011251 -0.108161
0.062805 -0.007375 -0.109033
0.062262 0.000240 -0.110762
0.062448 0.004297 -0.111676
0.062637 0.008416 -0.112606
-0.078518 -0.034729 -0.116701
-0.077020 -0.035450 -0.116424
-0.075529 -0.036168 -0.116148
-0.074046 -0.036883 -0.115875
-0.072035 -0.038629 -0.115335
-0.070571 -0.039334 -0.115066
-0.069115 -0.040035 -0.114798
-0.067146 -0.041751 -0.114270
-0.065709 -0.042443 -0.114007
-0.064278 -0.043131 -0.113746
-0.063426 -0.042682 -0.113779
-0.062721 -0.041939 -0.113888
-0.061945 -0.041335 -0.113962
-0.061303 -0.040458 -0.114107
-0.060927 -0.039038 -0.114391
-0.061096 -0.036500 -0.114964
-0.060730 -0.035036 -0.115259
-0.060423 -0.033439 -0.115589
-0.060115 -0.031833 -0.115922
-0.060593 -0.028582 -0.116676
-0.060414 -0.026673 -0.117086
-0.060235 -0.024751 -0.117499
-0.060055 -0.022815 -0.117915
-0.060643 -0.019236 -0.118752
-0.060463 -0.017260 -0.119178
-0.060282 -0.015271 -0.119607
-0.060101 -0.013267 -0.120041
-0.059919 -0.011249 -0.120478
-0.060520 -0.007511 -0.121353
-0.060158 -0.005842 -0.121700
-0.059987 -0.003743 -0.122158
-0.060250 -0.000667 -0.122863
-0.006310 -0.016805 -0.116029
-0.004685 -0.018517 -0.115554
-0.003076 -0.020209 -0.115084
-0.001381 -0.022176 -0.114548
-0.000275 -0.022458 -0.114430
0.000828 -0.022739 -0.114313
0.001928 -0.023020 -0.114196
0.003025 -0.023300 -0.114081
0.004317 -0.024169 -0.113820
0.005408 -0.024447 -0.113706
0.006495 -0.024723 -0.113592
0.007580 -0.024999 -0.113480
0.008830 -0.025788 -0.113241
0.009847 -0.025876 -0.113176
0.010863 -0.025964 -0.113112
0.011878 -0.026051 -0.113048
0.013016 -0.026534 -0.112887
0.014026 -0.026621 -0.112825
0.015035 -0.026708 -0.112763
0.016042 -0.026794 -0.112702
0.017168 -0.027273 -0.112544
0.018171 -0.027359 -0.112483
0.019172 -0.027445 -0.112424
0.020172 -0.027530 -0.112365
0.021170 -0.027615 -0.112306
0.022283 -0.028090 -0.112152
0.023276 -0.028174 -0.112094
0.024269 -0.028258 -0.112038
0.025259 -0.028342 -0.111981
0.026312 -0.028642 -0.111872
0.027273 -0.028636 -0.111839
0.028233 -0.028629 -0.111806
0.029193 -0.028622 -0.111774
0.030235 -0.028912 -0.111669
0.031191 -0.028905 -0.111638
0.032146 -0.028897 -0.111608
0.033101 -0.028890 -0.111577
0.034135 -0.029178 -0.111475
0.035087 -0.029171 -0.111446
0.036038 -0.029163 -0.111417
0.036988 -0.029155 -0.111389
0.038015 -0.029442 -0.111289
0.038962 -0.029434 -0.111262
0.039908 -0.029426 -0.111235
0.040776 -0.029117 -0.111282
0.041796 -0.029403 -0.111184
0.042740 -0.029394 -0.111159
0.043683 -0.029386 -0.111134
0.044624 -0.029377 -0.111109
0.045565 -0.029368 -0.111086
0.046577 -0.029652 -0.110990
0.047515 -0.029643 -0.110967
0.048449 -0.029619 -0.110949
0.049372 -0.029553 -0.110940
0.050351 -0.029722 -0.110875
0.051272 -0.029656 -0.110868
0.052193 -0.029590 -0.110861
0.053113 -0.029524 -0.110855
0.054086 -0.029692 -0.110791
0.055005 -0.029626 -0.110786
0.055923 -0.029559 -0.110781
0.056840 -0.029493 -0.110776
0.057809 -0.029660 -0.110715
0.058683 -0.029401 -0.110758
0.059457 -0.028683 -0.110914
0.060233 -0.027963 -0.111070
0.060835 -0.026416 -0.111428
0.060997 -0.022763 -0.112300
0.061163 -0.019057 -0.113184
0.060606 -0.011790 -0.114936
0.060774 -0.007917 -0.115862
0.060944 -0.003983 -0.116802
0.061117 0.000011 -0.117757
-0.076841 -0.018768 -0.127499
-0.075308 -0.019551 -0.127190
-0.073227 -0.021440 -0.126579
-0.071714 -0.022211 -0.126276
-0.070210 -0.022978 -0.125974
-0.068713 -0.023741 -0.125674
-0.066690 -0.025589 -0.125080
-0.065283 -0.026198 -0.124824
-0.064448 -0.025642 -0.124888
-0.063760 -0.024781 -0.125034
-0.063334 -0.023373 -0.125330
-0.062931 -0.021908 -0.125642
-0.062615 -0.020251 -0.126006
-0.062306 -0.018564 -0.126378
-0.062644 -0.015496 -0.127125
-0.062334 -0.013781 -0.127505
-0.062467 -0.011103 -0.128145
0.018683 -0.016749 -0.121932
0.020176 -0.018432 -0.121451
0.021656 -0.020097 -0.120976
0.022816 -0.020700 -0.120778
0.024050 -0.021568 -0.120512
0.025109 -0.021845 -0.120401
0.026165 -0.022122 -0.120290
0.027219 -0.022398 -0.120180
0.028434 -0.023256 -0.119919
0.029482 -0.023529 -0.119811
0.030527 -0.023802 -0.119703
0.031569 -0.024074 -0.119596
0.032425 -0.023674 -0.119665
0.033465 -0.023946 -0.119559
0.034502 -0.024217 -0.119454
0.035520 -0.024422 -0.119367
0.036608 -0.024900 -0.119209
0.037589 -0.024986 -0.119154
0.038570 -0.025071 -0.119099
0.039548 -0.025156 -0.119045
0.040626 -0.025631 -0.118891
0.041601 -0.025715 -0.118838
0.042575 -0.025799 -0.118786
0.043548 -0.025882 -0.118734
0.044519 -0.025966 -0.118683
0.045584 -0.026436 -0.118532
0.046552 -0.026518 -0.118482
0.047518 -0.026601 -0.118432
0.048483 -0.026683 -0.118384
0.049539 -0.027149 -0.118236
0.050500 -0.027230 -0.118188
0.051449 -0.027261 -0.118154
0.052387 -0.027252 -0.118131
0.053393 -0.027538 -0.118032
0.054329 -0.027529 -0.118009
0.055265 -0.027520 -0.117987
0.056199 -0.027511 -0.117966
0.057093 -0.027322 -0.117991
0.057862 -0.026563 -0.118165
0.058633 -0.025803 -0.118339
0.059405 -0.025040 -0.118514
0.059178 -0.019588 -0.119901
0.059332 -0.015830 -0.120850
0.059319 -0.011213 -0.122021
0.058724 -0.003699 -0.123940
0.058880 0.000303 -0.124953
0.045635 -0.015695 -0.128183
0.047465 -0.019305 -0.127163
0.048513 -0.019683 -0.127030
0.049534 -0.019957 -0.126925
0.050554 -0.020230 -0.126821
0.051704 -0.021080 -0.126560
0.052718 -0.021351 -0.126458
0.053729 -0.021620 -0.126357
0.054460 -0.020645 -0.126597
0.055333 -0.020298 -0.126665
0.056037 -0.019182 -0.126944
0.056734 -0.018016 -0.127237
0.057256 -0.016017 -0.127757
0.056769 -0.009275 -0.129574
-0.055931 -0.021637 -0.027022
-0.053875 -0.022440 -0.026952
-0.052918 -0.021987 -0.026967
-0.051962 -0.021535 -0.026982
-0.051007 -0.021083 -0.026998
-0.049927 -0.020778 -0.027003
-0.048975 -0.020328 -0.027019
-0.048023 -0.019877 -0.027034
-0.047072 -0.019428 -0.027050
-0.045998 -0.019126 -0.027056
-0.045050 -0.018677 -0.027072
-0.044103 -0.018229 -0.027088
-0.043156 -0.017781 -0.027104
-0.042331 -0.017189 -0.027130
-0.041516 -0.016585 -0.027157
-0.040702 -0.015981 -0.027183
-0.039887 -0.015377 -0.027211
-0.039081 -0.014763 -0.027238
-0.038267 -0.014160 -0.027266
-0.037453 -0.013556 -0.027293
-0.036750 -0.012815 -0.027330
-0.037304 -0.010509 -0.027472
-0.056533 -0.033499 -0.033345
-0.055587 -0.033046 -0.033355
-0.054641 -0.032594 -0.033365
-0.053696 -0.032142 -0.033376
-0.052627 -0.031832 -0.033374
-0.051684 -0.031381 -0.033385
-0.050743 -0.030932 -0.033396
-0.049802 -0.030482 -0.033407
-0.048863 -0.030033 -0.033418
-0.047801 -0.029727 -0.033417
-0.046864 -0.029279 -0.033428
-0.045928 -0.028832 -0.033440
-0.044992 -0.028386 -0.033451
-0.043937 -0.028081 -0.033451
-0.043003 -0.027636 -0.033463
-0.042071 -0.027191 -0.033475
-0.041140 -0.026747 -0.033487
-0.040173 -0.026347 -0.033495
-0.039504 -0.025594 -0.033534
-0.038835 -0.024841 -0.033573
-0.038165 -0.024087 -0.033612
-0.037681 -0.023109 -0.033670
-0.037206 -0.022118 -0.033730
-0.036820 -0.021015 -0.033799
-0.036433 -0.019909 -0.033868
-0.036472 -0.018279 -0.033982
-0.036084 -0.017166 -0.034052
-0.035715 -0.016025 -0.034125
-0.035459 -0.014740 -0.034210
-0.035820 -0.012683 -0.034360
-0.035591 -0.011351 -0.034449
-0.035361 -0.010014 -0.034538
-0.035130 -0.008673 -0.034628
-0.034917 -0.007303 -0.034720
-0.035491 -0.004931 -0.034897
-0.035363 -0.003436 -0.035000
-0.035236 -0.001936 -0.035104
-0.035107 -0.000428 -0.035208
-0.036716 0.003325 -0.035501
-0.059695 -0.043681 -0.039668
-0.058209 -0.043814 -0.039611
-0.057272 -0.043362 -0.039617
-0.056336 -0.042910 -0.039622
-0.055402 -0.042459 -0.039628
-0.054344 -0.042143 -0.039619
-0.053412 -0.041694 -0.039625
-0.052481 -0.041245 -0.039631
-0.051551 -0.040796 -0.039637
-0.050499 -0.040483 -0.039629
-0.049572 -0.040036 -0.039635
-0.048645 -0.039589 -0.039642
-0.047719 -0.039143 -0.039649
-0.046673 -0.038833 -0.039641
-0.045750 -0.038389 -0.039648
-0.044827 -0.037944 -0.039655
-0.043906 -0.037501 -0.039663
-0.042985 -0.037057 -0.039670
-0.041994 -0.036696 -0.039669
-0.041334 -0.035957 -0.039708
-0.040673 -0.035218 -0.039747
-0.040041 -0.034444 -0.039789
-0.039666 -0.033369 -0.039863
-0.039250 -0.032340 -0.039932
-0.038870 -0.031264 -0.040006
-0.038490 -0.030186 -0.040081
-0.038570 -0.028559 -0.040212
-0.038231 -0.027423 -0.040292
-0.037899 -0.026274 -0.040374
-0.037676 -0.024990 -0.040470
-0.038039 -0.022996 -0.040639
-0.037815 -0.021700 -0.040736
-0.037591 -0.020399 -0.040834
-0.037366 -0.019094 -0.040932
-0.037733 -0.017061 -0.041105
-0.037507 -0.015743 -0.041204
-0.037281 -0.014421 -0.041304
-0.037054 -0.013093 -0.041405
-0.037424 -0.011020 -0.041582
-0.037197 -0.009679 -0.041684
-0.036968 -0.008334 -0.041786
-0.036739 -0.006984 -0.041889
-0.036509 -0.005629 -0.041992
-0.036881 -0.003505 -0.042174
-0.036651 -0.002136 -0.042279
-0.036420 -0.000762 -0.042384
-0.036188 0.000617 -0.042490
-0.036563 0.002783 -0.042676
-0.036330 0.004176 -0.042784
-0.036097 0.005575 -0.042892
-0.035936 0.007073 -0.043010
-0.036527 0.009564 -0.043229
-0.036400 0.011125 -0.043353
-0.036272 0.012693 -0.043479
-0.036144 0.014269 -0.043605
-0.062734 -0.053716 -0.045883
-0.061306 -0.053773 -0.045818
-0.060272 -0.053429 -0.045804
-0.059049 -0.053284 -0.045765
-0.058048 -0.052910 -0.045756
-0.057085 -0.052499 -0.045751
-0.056038 -0.052179 -0.045735
-0.055115 -0.051730 -0.045736
-0.054194 -0.051281 -0.045737
-0.053273 -0.050833 -0.045738
-0.052233 -0.050516 -0.045723
-0.051314 -0.050069 -0.045724
-0.050397 -0.049623 -0.045726
-0.049481 -0.049177 -0.045728
-0.048447 -0.048863 -0.045713
-0.047533 -0.048418 -0.045716
-0.046620 -0.047975 -0.045718
-0.045709 -0.047532 -0.045720
-0.044680 -0.047220 -0.045707
-0.043783 -0.046764 -0.045711
-0.043143 -0.046024 -0.045751
-0.042563 -0.045215 -0.045799
-0.042195 -0.044168 -0.045877
-0.041629 -0.043340 -0.045928
-0.041255 -0.042293 -0.046006
-0.040894 -0.041229 -0.046086
-0.040561 -0.040128 -0.046171
-0.040691 -0.038494 -0.046321
-0.040357 -0.037386 -0.046406
-0.040067 -0.036224 -0.046499
-0.039848 -0.034974 -0.046602
-0.040213 -0.033041 -0.046788
-0.039994 -0.031778 -0.046892
-0.039775 -0.030512 -0.046997
-0.039555 -0.029241 -0.047103
-0.039923 -0.027271 -0.047293
-0.039703 -0.025988 -0.047400
-0.039482 -0.024701 -0.047508
-0.039261 -0.023409 -0.047616
-0.039632 -0.021400 -0.047811
-0.039410 -0.020095 -0.047921
-0.039187 -0.018787 -0.048031
-0.038964 -0.017473 -0.048141
-0.039338 -0.015425 -0.048341
-0.038954 -0.014295 -0.048429
-0.038730 -0.012964 -0.048542
-0.038505 -0.011629 -0.048656
-0.038881 -0.009541 -0.048859
-0.038656 -0.008193 -0.048974
-0.038429 -0.006840 -0.049090
-0.038201 -0.005482 -0.049206
-0.037973 -0.004119 -0.049323
-0.038352 -0.001982 -0.049532
-0.038124 -0.000604 -0.049650
-0.037895 0.000778 -0.049770
-0.037665 0.002166 -0.049889
-0.038046 0.004346 -0.050103
-0.037816 0.005748 -0.050225
-0.037584 0.007155 -0.050347
-0.037352 0.008568 -0.050470
-0.037737 0.010793 -0.050689
-0.037503 0.012220 -0.050813
-0.037270 0.013653 -0.050938
-0.037035 0.015091 -0.051064
-0.037422 0.017362 -0.051288
-0.037213 0.018850 -0.051420
-0.037085 0.020455 -0.051566
-0.036957 0.022067 -0.051712
-0.036829 0.023687 -0.051859
-0.037541 0.026456 -0.052141
-0.064315 -0.056613 -0.052586
-0.062519 -0.057040 -0.052453
-0.061070 -0.057121 -0.052370
-0.059948 -0.056872 -0.052335
-0.058827 -0.056623 -0.052301
-0.057710 -0.056376 -0.052268
-0.056287 -0.056449 -0.052188
-0.055192 -0.056186 -0.052157
-0.054100 -0.055923 -0.052127
-0.052714 -0.055973 -0.052052
-0.051627 -0.055712 -0.052022
-0.050543 -0.055451 -0.051992
-0.049460 -0.055191 -0.051963
-0.048111 -0.055221 -0.051892
-0.047122 -0.054869 -0.051877
-0.046149 -0.054501 -0.051864
-0.045392 -0.053902 -0.051885
-0.044481 -0.053470 -0.051881
-0.043801 -0.052788 -0.051914
-0.043362 -0.051841 -0.051985
-0.042972 -0.050839 -0.052064
-0.043103 -0.049257 -0.052225
-0.042775 -0.048177 -0.052314
-0.042425 -0.047120 -0.052401
-0.042096 -0.046035 -0.052492
-0.042405 -0.044229 -0.052684
-0.042191 -0.043005 -0.052794
-0.041977 -0.041776 -0.052905
-0.041762 -0.040543 -0.053017
-0.041547 -0.039306 -0.053129
-0.041914 -0.037397 -0.053335
-0.041699 -0.036148 -0.053449
-0.041483 -0.034895 -0.053563
-0.041266 -0.033638 -0.053678
-0.041637 -0.031693 -0.053889
-0.041420 -0.030423 -0.054006
-0.041203 -0.029149 -0.054123
-0.040985 -0.027871 -0.054240
-0.041359 -0.025889 -0.054456
-0.041140 -0.024598 -0.054576
-0.040921 -0.023303 -0.054696
-0.040702 -0.022004 -0.054816
-0.041078 -0.019983 -0.055037
-0.040858 -0.018671 -0.055159
-0.040638 -0.017354 -0.055282
-0.040417 -0.016032 -0.055406
-0.039896 -0.015071 -0.055480
-0.039189 -0.014334 -0.055523
-0.038482 -0.013598 -0.055566
-0.037775 -0.012861 -0.055610
-0.037863 -0.011137 -0.055789
-0.037825 -0.009561 -0.055948
-0.037787 -0.007978 -0.056108
-0.037748 -0.006387 -0.056269
-0.039615 -0.002389 -0.056759
-0.040001 -0.000236 -0.056996
-0.039775 0.001151 -0.057129
-0.039548 0.002543 -0.057262
-0.039320 0.003940 -0.057396
-0.039710 0.006137 -0.057639
-0.039481 0.007549 -0.057775
-0.039252 0.008966 -0.057911
-0.039022 0.010389 -0.058048
